ply
format ascii 1.0
comment PCL generated
element vertex 1071
property float x
property float y
property float z
property uchar red
property uchar green
property uchar blue
element face 0
element camera 0
property float view_px
property float view_py
property float view_pz
property float x_axisx
property float x_axisy
property float x_axisz
property float y_axisx
property float y_axisy
property float y_axisz
property float z_axisx
property float z_axisy
property float z_axisz
property float focal
property float scalex
property float scaley
property float centerx
property float centery
property int viewportx
property int viewporty
property float k1
property float k2
end_header
0.080002382 0.10412872 1.2648405 208 197 193
0.080719031 0.10412046 1.2647401 214 203 199
0.081438802 0.10411633 1.2646899 215 204 198
0.082158513 0.10411219 1.2646397 207 197 189
0.082874887 0.10410394 1.2645395 208 198 192
0.083594449 0.1040998 1.2644893 211 199 195
0.084313966 0.10409568 1.2644391 218 204 198
0.085033409 0.10409153 1.2643888 219 205 197
0.085752808 0.1040874 1.2643386 218 205 197
0.086468711 0.10407914 1.2642382 219 208 199
0.087187968 0.10407501 1.2641881 221 211 203
0.087903671 0.10406675 1.2640878 221 210 203
0.088619269 0.10405849 1.2639874 217 205 200
0.089334749 0.10405023 1.263887 214 203 202
0.09005367 0.10404609 1.2638367 221 211 209
0.090768948 0.10403783 1.2637365 222 212 209
0.091484115 0.10402957 1.2636361 224 214 209
0.09220282 0.10402544 1.2635859 223 211 204
0.092917785 0.10401718 1.2634856 224 208 202
0.093636341 0.10401305 1.2634355 227 210 206
0.094351113 0.10400479 1.2633351 234 217 215
0.09506952 0.10400064 1.2632848 228 212 212
0.095784083 0.10399239 1.2631844 223 207 205
0.096498527 0.10398412 1.2630841 220 207 204
0.097212851 0.10397586 1.2629838 220 210 206
0.097927071 0.1039676 1.2628834 222 213 208
0.098641172 0.10395934 1.2627831 223 214 206
0.099351205 0.10394694 1.2626325 219 209 198
0.10006902 0.10394281 1.2625823 217 205 195
0.10078277 0.10393455 1.2624819 217 206 198
0.10149642 0.10392629 1.2623816 220 212 202
0.10221401 0.10392216 1.2623314 217 209 196
0 0 0 32 40 61
0.030917645 0.10513463 1.268253 142 156 169
0.031651415 0.10516375 1.2686042 205 206 210
0.032381747 0.10518039 1.2688049 220 206 211
0.033109691 0.10518871 1.2689053 227 215 221
0.033835072 0.10518871 1.2689053 234 227 227
0.034560457 0.10518871 1.2689053 232 225 220
0.035283048 0.10518039 1.2688049 235 228 223
0.036005519 0.10517206 1.2687044 232 225 220
0.036727879 0.10516375 1.2686042 230 222 219
0.037451606 0.10515958 1.268554 229 220 219
0.038173769 0.10515127 1.2684536 225 216 215
0.038897354 0.10514711 1.2684034 227 218 219
0.039619312 0.10513879 1.2683032 232 223 223
0.040342756 0.10513463 1.268253 231 223 223
0.041066136 0.10513046 1.2682027 231 223 221
0.041789465 0.10512631 1.2681525 228 219 215
0.042514414 0.10512631 1.2681525 228 217 211
0.043241072 0.10513046 1.2682027 222 211 206
0.043966051 0.10513046 1.2682027 217 207 197
0.044692807 0.10513463 1.268253 218 201 186
0.045412418 0.10512215 1.2681023 113 90 84
0.046128217 0.10510135 1.2678515 67 54 59
0.046841867 0.10507639 1.2675503 55 54 59
0.047555175 0.10505143 1.2672492 53 54 58
0.048266228 0.10502231 1.2668979 49 51 55
0.048980758 0.10500151 1.2666471 50 61 66
0.049696971 0.10498486 1.2664462 102 122 122
0.050418951 0.10498071 1.2663962 191 198 194
0.051142894 0.10498071 1.2663962 213 206 203
0.051866844 0.10498071 1.2663962 220 210 211
0.052592874 0.10498486 1.2664462 219 207 207
0.05331685 0.10498486 1.2664462 221 208 207
0.054040823 0.10498486 1.2664462 222 207 206
0.054762632 0.10498071 1.2663962 230 217 216
0.055486578 0.10498071 1.2663962 226 215 214
0.056208298 0.10497655 1.266346 229 218 217
0.056929961 0.10497239 1.2662958 231 220 217
0.057651564 0.10496823 1.2662456 224 216 212
0.058373116 0.10496407 1.2661954 228 222 218
0.059096947 0.10496407 1.2661954 232 225 221
0.059818409 0.10495991 1.2661452 224 215 213
0.060539816 0.10495575 1.266095 223 214 215
0.061261155 0.10495158 1.2660449 228 219 218
0.061979987 0.10494327 1.2659445 228 220 218
0.062701188 0.1049391 1.2658943 226 219 215
0.063422337 0.10493495 1.2658441 221 215 210
0.064143427 0.10493079 1.2657939 226 220 218
0.064864464 0.10492663 1.2657437 217 209 210
0.065585434 0.10492247 1.2656935 223 211 210
0.066308983 0.10492247 1.2656935 225 213 210
0.067029871 0.10491831 1.2656435 225 213 211
0.067753389 0.10491831 1.2656435 224 211 210
0.068474188 0.10491415 1.2655933 224 211 208
0.069194928 0.10490999 1.2655431 225 213 211
0.069912843 0.10490166 1.2654426 221 210 208
0.070633449 0.10489751 1.2653924 218 208 206
0.071351156 0.10488918 1.2652922 215 205 204
0.072071619 0.10488503 1.265242 216 205 204
0.072792016 0.10488087 1.2651918 219 206 204
0.07351236 0.10487671 1.2651416 220 208 204
0.074235588 0.10487671 1.2651416 223 209 205
0.074955851 0.10487255 1.2650914 218 206 202
0.075679049 0.10487255 1.2650914 216 204 201
0.076399215 0.10486839 1.2650412 216 206 203
0.07712239 0.10486839 1.2650412 217 206 203
0.077842474 0.10486423 1.264991 216 205 202
0.078562498 0.10486006 1.2649407 217 205 203
0.07928247 0.1048559 1.2648907 216 204 202
0.080002382 0.10485175 1.2648405 211 198 197
0.080719031 0.10484343 1.2647401 205 192 191
0.081438802 0.10483927 1.2646899 206 193 190
0.082158513 0.10483511 1.2646397 210 199 192
0.082874887 0.10482679 1.2645395 208 200 193
0.083594449 0.10482263 1.2644893 209 200 196
0.084313966 0.10481847 1.2644391 219 208 201
0.085033409 0.1048143 1.2643888 223 211 201
0.085749403 0.10480598 1.2642884 223 209 201
0.086468711 0.10480183 1.2642382 216 204 198
0.087184511 0.10479351 1.264138 219 208 203
0.087903671 0.10478935 1.2640878 217 208 204
0.088619269 0.10478103 1.2639874 219 210 207
0.089334749 0.10477271 1.263887 215 206 204
0.090050101 0.10476439 1.2637867 221 210 207
0.09076535 0.10475606 1.2636863 227 215 209
0.091480486 0.10474775 1.2635859 229 216 208
0.092199154 0.10474359 1.2635357 229 214 206
0.092917785 0.10473944 1.2634856 230 212 204
0.093632631 0.10473111 1.2633853 225 208 201
0.094351113 0.10472696 1.2633351 226 209 207
0.09506952 0.10472278 1.2632848 223 206 208
0.095784083 0.10471447 1.2631844 224 206 205
0.096502356 0.10471031 1.2631342 221 207 202
0.097212851 0.10469783 1.2629838 223 214 207
0.097927071 0.10468952 1.2628834 223 214 206
0.098641172 0.1046812 1.2627831 220 211 201
0.099355146 0.10467286 1.2626827 219 209 197
0.10006902 0.10466455 1.2625823 218 206 196
0.10078277 0.10465623 1.2624819 217 205 197
0.10150045 0.10465207 1.2624317 221 209 198
0.10221401 0.10464375 1.2623314 220 209 195
0 0 0 33 40 60
0.030918866 0.1058638 1.2683032 141 156 167
0.031652667 0.10589311 1.2686543 202 203 205
0.032383028 0.10590988 1.2688551 220 206 210
0.033110999 0.10591825 1.2689555 223 212 218
0.033837751 0.10592244 1.2690057 231 224 223
0.03456182 0.10591825 1.2689555 234 227 221
0.035284437 0.10590988 1.2688551 236 229 222
0.036006942 0.10590149 1.2687546 230 223 215
0.036729332 0.10589311 1.2686543 228 219 214
0.037451606 0.10588474 1.268554 231 221 219
0.038175277 0.10588054 1.2685038 234 224 222
0.038897354 0.10587218 1.2684034 229 220 218
0.03962088 0.10586799 1.2683532 234 225 224
0.04034435 0.1058638 1.2683032 229 222 221
0.041067764 0.10585961 1.268253 230 224 223
0.041791115 0.10585541 1.2682027 225 217 215
0.042516094 0.10585541 1.2682027 227 217 215
0.04324279 0.10585961 1.268253 218 211 207
0.043967795 0.10585961 1.268253 214 208 200
0.044692807 0.10585961 1.268253 214 200 187
0.045412418 0.10584704 1.2681023 120 96 91
0.046130039 0.10583028 1.2679017 71 58 63
0.046843719 0.10580515 1.2676004 54 52 57
0.04755706 0.10578002 1.2672994 51 51 55
0.048268139 0.1057507 1.2669481 48 49 53
0.048982702 0.10572976 1.2666973 47 57 62
0.049698941 0.10571299 1.2664964 95 113 115
0.050418951 0.10570463 1.2663962 188 195 194
0.051142894 0.10570463 1.2663962 214 208 208
0.051866844 0.10570463 1.2663962 223 214 215
0.052592874 0.10570882 1.2664462 224 212 213
0.05331685 0.10570882 1.2664462 221 207 208
0.054040823 0.10570882 1.2664462 223 207 206
0.054762632 0.10570463 1.2663962 228 215 213
0.055486578 0.10570463 1.2663962 232 221 218
0.056208298 0.10570044 1.266346 234 225 221
0.056929961 0.10569625 1.2662958 232 222 218
0.057651564 0.10569206 1.2662456 226 218 216
0.058373116 0.10568787 1.2661954 227 219 216
0.059094604 0.10568368 1.2661452 232 222 219
0.059818409 0.10568368 1.2661452 229 217 215
0.060537409 0.1056753 1.2660449 230 219 218
0.06125873 0.10567112 1.2659947 229 220 218
0.061979987 0.10566692 1.2659445 227 220 217
0.062701188 0.10566273 1.2658943 227 222 218
0.063422337 0.10565855 1.2658441 220 214 208
0.064140886 0.10565018 1.2657437 223 216 212
0.064864464 0.10565018 1.2657437 224 215 215
0.065585434 0.10564599 1.2656935 224 213 211
0.066306353 0.1056418 1.2656435 224 213 209
0.067029871 0.1056418 1.2656435 226 214 211
0.0677507 0.10563761 1.2655933 227 214 212
0.068471476 0.10563342 1.2655431 225 210 208
0.069192186 0.10562923 1.2654928 222 208 207
0.069910072 0.10562085 1.2653924 224 210 207
0.070630647 0.10561666 1.2653422 222 210 205
0.071348324 0.10560829 1.265242 216 204 200
0.072068758 0.1056041 1.2651918 215 202 200
0.072789133 0.10559992 1.2651416 215 201 198
0.073509447 0.10559572 1.2650914 216 203 200
0.074232645 0.10559572 1.2650914 220 205 202
0.074955851 0.10559572 1.2650914 219 205 200
0.075676046 0.10559154 1.2650412 217 203 198
0.076399215 0.10559154 1.2650412 217 204 199
0.077119328 0.10558735 1.264991 218 206 200
0.077842474 0.10558735 1.264991 219 207 201
0.078562498 0.10558315 1.2649407 219 206 201
0.07928247 0.10557897 1.2648907 217 202 198
0.079999208 0.10557058 1.2647903 212 196 192
0.080719031 0.1055664 1.2647401 207 192 189
0.081438802 0.10556221 1.2646899 209 195 190
0.082155257 0.10555384 1.2645895 211 201 194
0.082874887 0.10554965 1.2645395 209 202 196
0.083594449 0.10554546 1.2644893 212 205 202
0.084310606 0.10553708 1.2643888 215 207 201
0.085030034 0.10553289 1.2643386 221 210 200
0.085749403 0.1055287 1.2642884 223 209 200
0.086465284 0.10552032 1.2641881 214 201 194
0.087184511 0.10551614 1.264138 215 204 199
0.087900184 0.10550776 1.2640376 213 205 201
0.088615753 0.10549939 1.2639372 216 211 208
0.089331195 0.105491 1.2638367 217 209 205
0.090046525 0.10548263 1.2637365 224 212 206
0.09076535 0.10547844 1.2636863 228 213 205
0.091480486 0.10547006 1.2635859 227 210 202
0.092195503 0.10546169 1.2634856 226 207 199
0.09291409 0.1054575 1.2634355 226 206 199
0.093632631 0.10545331 1.2633853 222 204 198
0.094351113 0.10544913 1.2633351 222 206 203
0.095065743 0.10544074 1.2632346 218 202 203
0.095784083 0.10543656 1.2631844 223 204 203
0.096502356 0.10543237 1.2631342 220 205 199
0.097216718 0.10542399 1.263034 222 213 204
0.09793096 0.10541561 1.2629336 222 214 203
0.098641172 0.10540304 1.2627831 219 212 200
0.099355146 0.10539466 1.2626827 221 212 201
0.10007299 0.10539047 1.2626325 222 209 199
0.10078678 0.1053821 1.2625321 219 204 197
0.10150045 0.10537373 1.2624317 222 205 197
0.10221807 0.10536954 1.2623816 223 209 199
0 0 0 30 37 56
0.03092009 0.10659303 1.2683532 142 154 164
0.031653918 0.10662255 1.2687044 204 204 205
0.032383028 0.1066352 1.2688551 227 213 216
0.03311231 0.10664785 1.2690057 219 209 215
0.033839084 0.10665206 1.2690558 228 221 221
0.034563188 0.10664785 1.2690057 232 226 219
0.035285834 0.10663942 1.2689053 232 226 217
0.036008369 0.10663098 1.2688049 232 225 215
0.036730785 0.10662255 1.2687044 227 219 213
0.037453089 0.10661411 1.2686042 233 225 224
0.03817679 0.1066099 1.268554 232 224 221
0.038898893 0.10660145 1.2684536 232 222 216
0.039622448 0.10659724 1.2684034 238 227 224
0.040345948 0.10659303 1.2683532 232 223 221
0.041069388 0.1065888 1.2683032 231 224 224
0.041792769 0.10658459 1.268253 225 217 219
0.042517781 0.10658459 1.268253 225 215 215
0.04324279 0.10658459 1.268253 219 213 212
0.043967795 0.10658459 1.268253 218 215 209
0.044694573 0.1065888 1.2683032 212 199 188
0.045414217 0.10657615 1.2681525 130 107 105
0.046131868 0.10655928 1.2679517 70 58 64
0.046845574 0.10653397 1.2676506 51 50 54
0.047558941 0.10650867 1.2673496 48 50 52
0.04827005 0.10647915 1.2669983 46 49 52
0.048982702 0.10645386 1.2666973 45 54 59
0.049700908 0.10644119 1.2665466 86 101 104
0.050420947 0.10643277 1.2664462 191 195 196
0.051142894 0.10642854 1.2663962 222 214 215
0.051868897 0.10643277 1.2664462 229 218 220
0.052592874 0.10643277 1.2664462 226 214 215
0.053318962 0.10643698 1.2664964 216 203 205
0.054040823 0.10643277 1.2664462 225 212 212
0.0547648 0.10643277 1.2664462 224 212 210
0.055486578 0.10642854 1.2663962 230 218 213
0.056208298 0.10642433 1.266346 235 224 215
0.056929961 0.10642011 1.2662958 229 219 214
0.057651564 0.10641589 1.2662456 225 215 214
0.058373116 0.10641168 1.2661954 224 215 213
0.059094604 0.10640746 1.2661452 230 221 218
0.05981604 0.10640325 1.266095 231 221 219
0.060537409 0.10639901 1.2660449 230 221 217
0.06125873 0.10639481 1.2659947 227 218 215
0.061979987 0.10639059 1.2659445 219 213 211
0.062698707 0.10638215 1.2658441 230 226 222
0.063419826 0.10637794 1.2657939 228 221 215
0.064140886 0.10637373 1.2657437 225 215 211
0.064861894 0.10636951 1.2656935 229 219 218
0.065582834 0.10636529 1.2656435 230 219 216
0.066306353 0.10636529 1.2656435 223 212 208
0.067027211 0.10636108 1.2655933 220 209 205
0.067748018 0.10635686 1.2655431 221 211 207
0.06846875 0.10635263 1.2654928 224 212 210
0.069189437 0.10634841 1.2654426 224 211 212
0.069907293 0.10633998 1.2653422 221 207 203
0.070627838 0.10633576 1.2652922 218 205 196
0.071345501 0.10632733 1.2651918 214 201 193
0.072065905 0.10632312 1.2651416 207 194 189
0.072786242 0.1063189 1.2650914 208 194 191
0.073509447 0.1063189 1.2650914 213 199 197
0.074229695 0.10631468 1.2650412 216 202 198
0.074952871 0.10631468 1.2650412 219 206 200
0.075676046 0.10631468 1.2650412 218 207 200
0.07639619 0.10631046 1.264991 214 202 195
0.077119328 0.10631046 1.264991 212 199 191
0.077839389 0.10630624 1.2649407 212 199 191
0.078559376 0.10630202 1.2648907 215 201 194
0.079279318 0.10629781 1.2648405 213 199 191
0.079999208 0.10629359 1.2647903 210 195 188
0.080719031 0.10628937 1.2647401 207 195 188
0.081435576 0.10628095 1.2646397 208 197 190
0.082155257 0.10627673 1.2645895 206 196 189
0.082874887 0.1062725 1.2645395 207 198 194
0.083591133 0.10626408 1.2644391 210 201 201
0.084310606 0.10625985 1.2643888 212 203 198
0.085030034 0.10625563 1.2643386 213 204 193
0.085746005 0.1062472 1.2642382 218 206 196
0.086465284 0.10624298 1.2641881 212 200 192
0.087181047 0.10623455 1.2640878 212 201 195
0.087900184 0.10623033 1.2640376 218 209 205
0.088615753 0.1062219 1.2639372 219 213 207
0.089331195 0.10621346 1.2638367 219 210 203
0.090046525 0.10620502 1.2637365 222 210 202
0.090761743 0.1061966 1.2636361 220 208 199
0.09147685 0.10618816 1.2635357 220 207 198
0.092195503 0.10618395 1.2634856 217 203 196
0.092910402 0.10617551 1.2633853 216 201 195
0.093628913 0.1061713 1.2633351 217 203 199
0.09434735 0.10616707 1.2632848 223 208 206
0.095065743 0.10616285 1.2632346 224 207 208
0.095784083 0.10615864 1.2631844 222 203 202
0.096498527 0.1061502 1.2630841 214 199 193
0.097216718 0.10614599 1.263034 219 209 199
0.09793096 0.10613755 1.2629336 217 210 196
0.098645091 0.10612912 1.2628332 218 211 199
0.099359103 0.10612068 1.2627327 219 210 202
0.10007299 0.10611224 1.2626325 219 206 199
0.10078678 0.10610382 1.2625321 217 201 194
0.10150449 0.10609959 1.2624819 218 200 194
0.10221807 0.10609116 1.2623816 216 202 199
0 0 0 31 37 56
0.03092009 0.10731806 1.2683532 143 153 162
0.031653918 0.10734778 1.2687044 210 209 207
0.03238431 0.10736477 1.2689053 226 212 213
0.033113617 0.1073775 1.2690558 223 212 218
0.033839084 0.1073775 1.2690558 230 225 224
0.034563188 0.10737326 1.2690057 233 227 220
0.035287231 0.10736902 1.2689555 233 225 216
0.036009792 0.10736053 1.2688551 235 228 218
0.036732238 0.10735203 1.2687546 228 222 216
0.037454572 0.10734354 1.2686543 230 223 221
0.038178299 0.10733929 1.2686042 226 219 214
0.038900428 0.10733081 1.2685038 232 222 214
0.039624017 0.10732655 1.2684536 239 226 220
0.040347543 0.10732231 1.2684034 234 223 219
0.041071013 0.10731806 1.2683532 228 220 218
0.041794427 0.10731382 1.2683032 224 216 216
0.042519461 0.10731382 1.2683032 225 215 214
0.0432445 0.10731382 1.2683032 216 210 209
0.043969534 0.10731382 1.2683032 219 216 211
0.044694573 0.10731382 1.2683032 216 205 194
0.045416012 0.10730532 1.2682027 142 121 118
0.04613369 0.10728834 1.2680019 70 60 67
0.046849284 0.10726711 1.2677511 50 50 54
0.047560826 0.10723739 1.2673998 51 53 55
0.048271962 0.10720766 1.2670485 47 52 54
0.048984643 0.10718219 1.2667475 46 54 58
0.049700908 0.1071652 1.2665466 77 87 91
0.050420947 0.10715671 1.2664462 191 192 194
0.05114492 0.10715671 1.2664462 224 215 216
0.051868897 0.10715671 1.2664462 231 219 219
0.052594956 0.10716096 1.2664964 227 213 214
0.053318962 0.10716096 1.2664964 218 205 207
0.054042965 0.10716096 1.2664964 226 215 214
0.0547648 0.10715671 1.2664462 227 215 212
0.055486578 0.10715247 1.2663962 237 223 218
0.056208298 0.10714822 1.266346 236 223 217
0.056929961 0.10714398 1.2662958 230 218 215
0.057651564 0.10713973 1.2662456 226 215 215
0.058373116 0.10713548 1.2661954 223 212 212
0.059094604 0.10713124 1.2661452 229 221 218
0.05981604 0.10712699 1.266095 233 227 223
0.060537409 0.10712274 1.2660449 232 225 220
0.06125873 0.10711849 1.2659947 229 220 218
0.061977532 0.10711 1.2658943 220 214 214
0.062698707 0.10710576 1.2658441 223 219 217
0.063417315 0.10709727 1.2657437 225 217 212
0.064138345 0.10709303 1.2656935 229 216 212
0.064859323 0.10708877 1.2656435 228 215 213
0.065580241 0.10708454 1.2655933 231 219 217
0.066303723 0.10708454 1.2655933 230 220 216
0.067024551 0.10708029 1.2655431 223 215 208
0.067748018 0.10708029 1.2655431 219 210 202
0.06846875 0.10707603 1.2654928 219 210 205
0.069186702 0.10706754 1.2653924 224 213 213
0.069907293 0.1070633 1.2653422 220 206 201
0.070625037 0.10705481 1.265242 217 203 193
0.071345501 0.10705056 1.2651918 211 197 188
0.072065905 0.10704632 1.2651416 212 198 192
0.072786242 0.10704207 1.2650914 209 195 190
0.073506534 0.10703783 1.2650412 210 197 194
0.074229695 0.10703783 1.2650412 212 199 194
0.074949905 0.10703359 1.264991 213 202 195
0.075673044 0.10703359 1.264991 214 206 198
0.07639619 0.10703359 1.264991 215 205 197
0.077116266 0.10702933 1.2649407 212 199 192
0.077836297 0.10702509 1.2648907 206 192 186
0.078556269 0.10702083 1.2648405 208 194 187
0.079279318 0.10702083 1.2648405 208 195 188
0.079996035 0.10701235 1.2647401 202 190 185
0.080715835 0.1070081 1.2646899 199 188 186
0.081435576 0.10700386 1.2646397 199 189 185
0.082152002 0.10699537 1.2645395 201 190 185
0.082871601 0.10699112 1.2644893 202 191 189
0.083591133 0.10698688 1.2644391 204 193 194
0.084307268 0.10697838 1.2643386 209 197 195
0.085026667 0.10697413 1.2642884 208 198 190
0.085746005 0.10696989 1.2642382 208 198 190
0.086465284 0.10696565 1.2641881 210 199 193
0.087181047 0.10695715 1.2640878 211 200 195
0.087900184 0.10695291 1.2640376 212 201 197
0.088615753 0.10694441 1.2639372 213 202 197
0.089331195 0.10693591 1.2638367 217 205 198
0.090046525 0.10692742 1.2637365 219 206 199
0.090761743 0.10691894 1.2636361 216 206 200
0.09147685 0.10691044 1.2635357 213 205 198
0.092191838 0.10690195 1.2634355 216 208 199
0.092910402 0.10689771 1.2633853 215 206 199
0.093628913 0.10689346 1.2633351 214 203 198
0.09434735 0.1068892 1.2632848 216 202 200
0.095065743 0.10688496 1.2632346 221 205 205
0.095784083 0.10688072 1.2631844 225 206 204
0.096498527 0.10687223 1.2630841 218 202 197
0.097216718 0.10686798 1.263034 219 208 198
0.09793096 0.1068595 1.2629336 215 207 193
0.098645091 0.106851 1.2628332 212 206 195
0.099359103 0.1068425 1.2627327 212 203 198
0.10007299 0.10683402 1.2626325 218 204 198
0.10079078 0.10682976 1.2625823 216 200 192
0.10150449 0.10682128 1.2624819 219 200 194
0.10222213 0.10681703 1.2624317 216 201 198
0 0 0 30 36 55
0.030921312 0.10804738 1.2684034 137 150 158
0.03165517 0.1080773 1.2687546 209 210 206
0.032385591 0.1080944 1.2689555 222 208 208
0.033113617 0.10810294 1.2690558 224 214 220
0.033840425 0.10810722 1.2691059 233 229 229
0.034564551 0.10810294 1.2690558 233 226 221
0.035287231 0.1080944 1.2689555 237 227 219
0.036009792 0.10808586 1.2688551 232 224 214
0.036732238 0.1080773 1.2687546 227 221 214
0.037456051 0.10807302 1.2687044 226 220 216
0.038179811 0.10806875 1.2686543 232 224 218
0.03890197 0.1080602 1.268554 234 223 214
0.039625585 0.10805593 1.2685038 237 223 216
0.040349141 0.10805165 1.2684536 231 219 214
0.041072637 0.10804738 1.2684034 229 219 216
0.041796077 0.1080431 1.2683532 228 218 217
0.042521145 0.1080431 1.2683532 229 218 217
0.043246213 0.1080431 1.2683532 213 205 204
0.043971274 0.1080431 1.2683532 223 218 212
0.044696342 0.1080431 1.2683532 225 214 203
0.045417815 0.10803455 1.268253 157 139 138
0.046139169 0.108026 1.2681525 71 63 72
0.04685114 0.10799608 1.2678013 52 53 58
0.047564592 0.10797043 1.2675002 49 53 54
0.048273873 0.10793623 1.2670987 50 55 57
0.04898658 0.10791058 1.2667977 46 53 56
0.049702879 0.1078935 1.2665969 67 74 78
0.050422944 0.10788494 1.2664964 187 186 189
0.05114492 0.10788066 1.2664462 220 210 211
0.051868897 0.10788066 1.2664462 232 220 218
0.052594956 0.10788494 1.2664964 228 215 215
0.053318962 0.10788494 1.2664964 225 214 216
0.054042965 0.10788494 1.2664964 226 217 216
0.0547648 0.10788066 1.2664462 230 220 216
0.055488776 0.10788066 1.2664462 234 223 220
0.056210525 0.10787639 1.2663962 227 217 214
0.056932218 0.10787211 1.266346 224 215 213
0.057653852 0.10786784 1.2662958 230 221 221
0.058373116 0.10785929 1.2661954 225 216 215
0.059094604 0.10785502 1.2661452 230 222 219
0.05981604 0.10785075 1.266095 234 228 223
0.06053501 0.10784218 1.2659947 226 218 213
0.061256297 0.10783792 1.2659445 226 217 215
0.061977532 0.10783364 1.2658943 226 217 220
0.062696226 0.10782509 1.2657939 228 219 219
0.063417315 0.10782082 1.2657437 230 218 216
0.064138345 0.10781655 1.2656935 232 219 216
0.064859323 0.10781227 1.2656435 226 214 211
0.065580241 0.10780799 1.2655933 228 216 212
0.066301093 0.10780372 1.2655431 232 222 218
0.067024551 0.10780372 1.2655431 226 217 209
0.06774532 0.10779944 1.2654928 223 213 200
0.068466038 0.10779516 1.2654426 226 215 207
0.069186702 0.10779089 1.2653924 220 208 207
0.069904529 0.10778234 1.2652922 220 208 203
0.070625037 0.10777806 1.265242 216 201 191
0.071342669 0.10776953 1.2651416 213 196 187
0.072063044 0.10776524 1.2650914 220 205 198
0.072783358 0.10776097 1.2650412 219 205 199
0.073503613 0.1077567 1.264991 206 194 189
0.074226759 0.1077567 1.264991 214 205 198
0.074949905 0.1077567 1.264991 211 203 194
0.075670034 0.10775242 1.2649407 213 206 197
0.07639315 0.10775242 1.2649407 218 209 201
0.077113204 0.10774814 1.2648907 219 205 199
0.077836297 0.10774814 1.2648907 209 195 191
0.078556269 0.10774387 1.2648405 215 200 196
0.079276174 0.10773959 1.2647903 206 192 189
0.079992861 0.10773105 1.2646899 197 184 184
0.080712631 0.10772678 1.2646397 198 188 191
0.081432343 0.1077225 1.2645895 199 190 191
0.082148738 0.10771395 1.2644893 201 192 189
0.082868308 0.10770968 1.2644391 206 196 196
0.083587818 0.10770539 1.2643888 202 191 194
0.084307268 0.10770112 1.2643386 210 198 198
0.085026667 0.10769685 1.2642884 213 201 197
0.0857426 0.1076883 1.2641881 213 200 196
0.08646185 0.10768403 1.264138 211 199 196
0.087181047 0.10767975 1.2640878 210 199 196
0.087896697 0.1076712 1.2639874 209 198 195
0.088615753 0.10766693 1.2639372 209 198 194
0.089331195 0.10765837 1.2638367 210 199 194
0.090046525 0.10764983 1.2637365 217 205 201
0.090761743 0.10764127 1.2636361 217 208 206
0.09147685 0.10763273 1.2635357 213 206 200
0.092191838 0.10762418 1.2634355 217 211 199
0.092910402 0.10761991 1.2633853 210 203 193
0.093628913 0.10761563 1.2633351 209 201 193
0.09434735 0.10761135 1.2632848 213 201 198
0.095065743 0.10760708 1.2632346 206 193 193
0.095784083 0.1076028 1.2631844 214 198 197
0.096498527 0.10759425 1.2630841 218 204 199
0.097216718 0.10758998 1.263034 220 208 199
0.09793096 0.10758144 1.2629336 214 205 191
0.098645091 0.10757288 1.2628332 208 203 193
0.099359103 0.10756433 1.2627327 210 203 199
0.10007697 0.10756006 1.2626827 217 206 201
0.10079078 0.10755151 1.2625823 216 202 194
0.10150449 0.10754296 1.2624819 220 202 195
0.10222213 0.10753869 1.2624317 211 197 192
0 0 0 31 40 59
0.030921312 0.10877245 1.2684034 139 155 163
0.031656425 0.10880688 1.2688049 213 215 211
0.032385591 0.10881978 1.2689555 224 210 210
0.033114929 0.10883269 1.2691059 224 215 219
0.033840425 0.10883269 1.2691059 231 227 227
0.034565922 0.10883269 1.2691059 233 224 220
0.035288628 0.10882408 1.2690057 234 221 214
0.036011215 0.10881548 1.2689053 231 221 212
0.036733691 0.10880688 1.2688049 229 223 215
0.037457529 0.10880256 1.2687546 228 220 214
0.038179811 0.10879395 1.2686543 237 227 220
0.038903508 0.10878965 1.2686042 237 224 216
0.03962715 0.10878535 1.268554 239 223 217
0.040350735 0.10878105 1.2685038 232 218 214
0.041072637 0.10877245 1.2684034 231 218 215
0.041797735 0.10877245 1.2684034 233 220 219
0.042521145 0.10876814 1.2683532 229 216 214
0.04324792 0.10877245 1.2684034 220 210 208
0.043973014 0.10877245 1.2684034 225 217 210
0.044698108 0.10877245 1.2684034 228 218 208
0.045419611 0.10876384 1.2683032 174 161 159
0.046142824 0.10875954 1.268253 70 64 72
0.046854846 0.10872941 1.2679017 50 52 57
0.04756647 0.10869928 1.2675503 47 51 53
0.048277698 0.10866917 1.267199 47 54 57
0.048988521 0.10863904 1.2668477 46 51 56
0.049700908 0.10861322 1.2665466 59 62 68
0.050422944 0.10860891 1.2664964 178 175 181
0.05114492 0.10860461 1.2664462 223 213 214
0.051868897 0.10860461 1.2664462 232 220 217
0.052594956 0.10860891 1.2664964 234 223 221
0.053318962 0.10860891 1.2664964 222 213 213
0.054042965 0.10860891 1.2664964 226 218 216
0.054766972 0.10860891 1.2664964 224 216 212
0.055488776 0.10860461 1.2664462 228 218 215
0.056210525 0.1086003 1.2663962 224 215 213
0.056932218 0.108596 1.266346 222 215 214
0.057653852 0.1085917 1.2662958 228 221 221
0.058373116 0.10858309 1.2661954 228 220 219
0.059094604 0.10857879 1.2661452 224 218 216
0.05981604 0.10857449 1.266095 225 219 215
0.06053501 0.10856587 1.2659947 228 219 215
0.061256297 0.10856157 1.2659445 224 212 212
0.061975073 0.10855297 1.2658441 226 212 216
0.062696226 0.10854867 1.2657939 235 219 219
0.063414797 0.10854007 1.2656935 234 220 217
0.064135805 0.10853576 1.2656435 234 223 219
0.064856753 0.10853145 1.2655933 227 215 210
0.065577634 0.10852715 1.2655431 226 213 208
0.066301093 0.10852715 1.2655431 230 218 214
0.067021891 0.10852284 1.2654928 229 219 212
0.06774532 0.10852284 1.2654928 230 217 207
0.068466038 0.10851854 1.2654426 227 211 205
0.069186702 0.10851423 1.2653924 216 203 202
0.069904529 0.10850563 1.2652922 221 210 208
0.070622236 0.10849702 1.2651918 219 204 199
0.071342669 0.10849272 1.2651416 215 194 189
0.072063044 0.10848842 1.2650914 218 201 197
0.072783358 0.10848412 1.2650412 222 209 204
0.073503613 0.10847981 1.264991 208 199 194
0.074223809 0.1084755 1.2649407 212 207 201
0.074946925 0.1084755 1.2649407 211 205 198
0.075670034 0.1084755 1.2649407 211 204 197
0.076390125 0.1084712 1.2648907 219 208 203
0.077113204 0.1084712 1.2648907 224 210 204
0.077833205 0.10846689 1.2648405 219 205 198
0.078553148 0.10846259 1.2647903 222 207 199
0.07927303 0.10845829 1.2647401 216 201 193
0.079989687 0.10844969 1.2646397 204 189 184
0.080709428 0.10844539 1.2645895 205 193 192
0.081429116 0.10844108 1.2645395 203 196 194
0.082148738 0.10843679 1.2644893 203 197 193
0.082865015 0.10842817 1.2643888 209 202 200
0.083584495 0.10842387 1.2643386 206 196 197
0.084303916 0.10841956 1.2642884 212 198 197
0.085023284 0.10841526 1.2642382 219 203 200
0.0857426 0.10841095 1.2641881 222 204 200
0.08646185 0.10840666 1.264138 217 202 196
0.087181047 0.10840235 1.2640878 214 202 197
0.087900184 0.10839805 1.2640376 217 206 203
0.088615753 0.10838944 1.2639372 215 204 201
0.089331195 0.10838083 1.2638367 213 202 200
0.090050101 0.10837653 1.2637867 219 209 206
0.090761743 0.10836361 1.2636361 217 209 205
0.09147685 0.10835501 1.2635357 215 209 203
0.092195503 0.10835072 1.2634856 216 210 201
0.092910402 0.10834211 1.2633853 210 205 197
0.093628913 0.1083378 1.2633351 208 202 197
0.09434735 0.10833349 1.2632848 206 197 195
0.095065743 0.10832919 1.2632346 202 191 193
0.095780276 0.10832059 1.2631342 207 195 193
0.096498527 0.10831629 1.2630841 216 203 197
0.097216718 0.10831198 1.263034 220 207 197
0.09793096 0.10830338 1.2629336 215 206 193
0.098645091 0.10829477 1.2628332 209 205 195
0.099359103 0.10828616 1.2627327 210 205 200
0.10007697 0.10828185 1.2626827 218 209 204
0.10079078 0.10827325 1.2625823 216 203 195
0.10150449 0.10826464 1.2624819 217 201 193
0.10222213 0.10826034 1.2624317 212 198 192
0 0 0 33 43 63
0.030922538 0.10950184 1.2684536 155 173 182
0.031656425 0.10953217 1.2688049 215 219 217
0.032386873 0.10954949 1.2690057 224 213 213
0.033114929 0.10955816 1.2691059 226 217 221
0.033841763 0.10956249 1.2691561 232 226 226
0.034565922 0.10955816 1.2691059 233 222 218
0.035288628 0.10954949 1.2690057 235 218 212
0.036011215 0.10954084 1.2689053 235 222 215
0.036735147 0.1095365 1.2688551 235 228 220
0.037457529 0.10952783 1.2687546 234 225 217
0.038181316 0.1095235 1.2687044 234 223 215
0.038905043 0.10951917 1.2686543 235 223 216
0.039628714 0.10951484 1.2686042 238 224 219
0.04035233 0.1095105 1.268554 232 218 215
0.041074261 0.10950184 1.2684536 229 217 214
0.041797735 0.10949751 1.2684034 227 216 214
0.042522825 0.10949751 1.2684034 227 216 213
0.04324792 0.10949751 1.2684034 225 216 213
0.043973014 0.10949751 1.2684034 220 212 205
0.044698108 0.10949751 1.2684034 226 217 207
0.04542141 0.10949318 1.2683532 196 185 182
0.046144649 0.10948884 1.2683032 75 70 76
0.046858557 0.10946285 1.2680019 53 54 60
0.047570236 0.10943253 1.2676506 44 48 52
0.048281521 0.10940221 1.2672994 44 50 55
0.048992403 0.10937188 1.2669481 46 49 55
0.049702879 0.10934156 1.2665969 56 58 66
0.050422944 0.10933289 1.2664964 160 158 169
0.05114492 0.10932855 1.2664462 218 213 217
0.051868897 0.10932855 1.2664462 226 219 214
0.052594956 0.10933289 1.2664964 236 227 224
0.053318962 0.10933289 1.2664964 224 216 216
0.054042965 0.10933289 1.2664964 228 221 219
0.054766972 0.10933289 1.2664964 230 221 217
0.055488776 0.10932855 1.2664462 234 223 220
0.056210525 0.10932422 1.2663962 233 223 221
0.056932218 0.1093199 1.266346 230 220 218
0.057653852 0.10931556 1.2662958 227 218 217
0.058373116 0.1093069 1.2661954 228 219 218
0.059094604 0.10930257 1.2661452 226 217 217
0.05981604 0.10929824 1.266095 224 215 214
0.06053501 0.10928956 1.2659947 226 217 215
0.061256297 0.10928524 1.2659445 227 216 218
0.061975073 0.10927657 1.2658441 222 209 213
0.062696226 0.10927224 1.2657939 227 211 212
0.063414797 0.10926358 1.2656935 232 219 216
0.064135805 0.10925925 1.2656435 233 222 217
0.064856753 0.10925491 1.2655933 222 211 205
0.065577634 0.10925059 1.2655431 217 207 202
0.066298462 0.10924625 1.2654928 218 210 207
0.067021891 0.10924625 1.2654928 214 208 203
0.067742638 0.10924191 1.2654426 213 205 198
0.068463326 0.10923758 1.2653924 219 208 204
0.069183953 0.10923325 1.2653422 213 203 203
0.069904529 0.10922892 1.2652922 215 206 207
0.070622236 0.10922026 1.2651918 210 197 199
0.071342669 0.10921593 1.2651416 208 189 190
0.072060183 0.10920727 1.2650412 212 195 195
0.072780475 0.10920294 1.264991 220 205 203
0.073500693 0.10919859 1.2649407 215 204 200
0.074223809 0.10919859 1.2649407 215 209 204
0.074943945 0.10919426 1.2648907 207 199 195
0.075667039 0.10919426 1.2648907 214 202 199
0.076387092 0.10918993 1.2648405 214 201 199
0.077110156 0.10918993 1.2648405 223 209 203
0.077830121 0.1091856 1.2647903 227 213 203
0.078550033 0.10918127 1.2647401 222 208 196
0.07927303 0.10918127 1.2647401 213 200 186
0.079989687 0.1091726 1.2646397 208 195 184
0.080706231 0.10916394 1.2645395 207 198 190
0.081425883 0.10915961 1.2644893 204 198 192
0.082145475 0.10915528 1.2644391 201 195 189
0.082861722 0.10914661 1.2643386 213 205 201
0.083581179 0.10914227 1.2642884 214 204 201
0.084300578 0.10913794 1.2642382 210 198 196
0.085023284 0.10913794 1.2642382 218 203 201
0.0857426 0.10913362 1.2641881 221 203 198
0.08646185 0.10912928 1.264138 220 205 196
0.087181047 0.10912495 1.2640878 219 209 203
0.087900184 0.10912062 1.2640376 219 209 206
0.088615753 0.10911196 1.2639372 211 200 198
0.089334749 0.10910763 1.263887 210 199 199
0.090050101 0.10909896 1.2637867 218 208 206
0.09076535 0.10909029 1.2636863 221 212 207
0.091480486 0.10908163 1.2635859 218 211 204
0.092195503 0.10907297 1.2634856 211 204 198
0.092910402 0.10906431 1.2633853 206 199 195
0.093628913 0.10905997 1.2633351 204 196 195
0.09434735 0.10905563 1.2632848 208 198 198
0.095065743 0.1090513 1.2632346 211 200 203
0.095780276 0.10904264 1.2631342 216 205 204
0.096498527 0.10903831 1.2630841 219 207 201
0.097216718 0.10903398 1.263034 219 207 197
0.09793096 0.10902531 1.2629336 214 205 192
0.098645091 0.10901666 1.2628332 216 211 201
0.099359103 0.10900798 1.2627327 211 206 200
0.10007299 0.10899932 1.2626325 215 207 201
0.10079078 0.10899499 1.2625823 210 199 191
0.10150449 0.10898633 1.2624819 213 200 192
0.10222213 0.108982 1.2624317 216 204 198
0 0 0 33 43 65
0.03092376 0.1102313 1.2685038 163 183 193
0.031657677 0.11026183 1.2688551 209 216 215
0.032389432 0.11028362 1.2691059 222 214 215
0.033116236 0.11028799 1.2691561 228 219 222
0.033843096 0.11029235 1.2692063 234 224 223
0.034567289 0.11028799 1.2691561 241 227 222
0.035290021 0.11027927 1.2690558 243 223 220
0.036012642 0.11027054 1.2689555 233 219 218
0.036735147 0.11026183 1.2688551 236 228 224
0.03745902 0.11025747 1.2688049 231 221 215
0.038182829 0.1102531 1.2687546 230 219 212
0.038906585 0.11024874 1.2687044 231 219 212
0.039630283 0.11024438 1.2686543 229 216 211
0.04035233 0.11023565 1.268554 227 215 211
0.041075885 0.1102313 1.2685038 227 215 211
0.041799385 0.11022694 1.2684536 228 217 213
0.042522825 0.11022258 1.2684034 226 217 213
0.04324792 0.11022258 1.2684034 226 218 214
0.043974753 0.11022694 1.2684536 223 215 210
0.044699878 0.11022694 1.2684536 221 212 205
0.045423206 0.11022258 1.2684034 211 201 197
0.046144649 0.11021386 1.2683032 94 89 88
0.046862267 0.11019641 1.2681023 57 57 59
0.047575891 0.11017025 1.2678013 47 49 54
0.048285346 0.11013536 1.2673998 43 48 52
0.048996281 0.11010484 1.2670485 47 49 55
0.049706817 0.11007431 1.2666973 55 54 63
0.050424941 0.11006123 1.2665466 113 113 125
0.051146951 0.11005686 1.2664964 211 212 217
0.051868897 0.1100525 1.2664462 223 220 217
0.052592874 0.1100525 1.2664462 230 223 220
0.053318962 0.11005686 1.2664964 221 214 213
0.054042965 0.11005686 1.2664964 227 220 216
0.054766972 0.11005686 1.2664964 228 218 213
0.055488776 0.1100525 1.2664462 235 220 216
0.056210525 0.11004815 1.2663962 236 221 219
0.056932218 0.11004379 1.266346 235 221 219
0.057653852 0.11003943 1.2662958 233 220 219
0.058375426 0.11003506 1.2662456 234 223 220
0.059094604 0.11002634 1.2661452 230 219 217
0.05981604 0.11002199 1.266095 228 217 214
0.06053501 0.11001325 1.2659947 230 219 216
0.061256297 0.1100089 1.2659445 231 220 219
0.061975073 0.11000018 1.2658441 223 210 212
0.062696226 0.10999582 1.2657939 225 210 209
0.063414797 0.10998709 1.2656935 227 214 211
0.064135805 0.10998274 1.2656435 225 215 212
0.064856753 0.10997838 1.2655933 220 212 208
0.065577634 0.10997401 1.2655431 214 208 206
0.066298462 0.10996965 1.2654928 215 211 210
0.067021891 0.10996965 1.2654928 217 214 211
0.067742638 0.10996529 1.2654426 220 215 210
0.068463326 0.10996093 1.2653924 218 212 208
0.069183953 0.10995656 1.2653422 210 202 200
0.069904529 0.10995221 1.2652922 207 199 196
0.070622236 0.10994349 1.2651918 208 196 193
0.071339846 0.10993477 1.2650914 212 196 194
0.072060183 0.10993041 1.2650412 216 199 197
0.072780475 0.10992604 1.264991 220 202 200
0.073500693 0.10992168 1.2649407 217 203 199
0.074220866 0.10991732 1.2648907 216 207 203
0.074943945 0.10991732 1.2648907 208 196 194
0.075664029 0.10991295 1.2648405 212 195 194
0.076387092 0.10991295 1.2648405 214 197 197
0.077107094 0.1099086 1.2647903 216 200 197
0.077830121 0.1099086 1.2647903 216 202 197
0.078546919 0.10989988 1.2646899 215 202 194
0.079269893 0.10989988 1.2646899 211 200 189
0.079986513 0.10989116 1.2645895 211 201 191
0.080703028 0.10988244 1.2644893 206 199 191
0.081422657 0.10987809 1.2644391 199 194 187
0.082142211 0.10987371 1.2643888 202 195 190
0.082861722 0.10986935 1.2643386 214 204 199
0.083581179 0.10986499 1.2642884 214 204 200
0.084300578 0.10986064 1.2642382 212 202 198
0.085019916 0.10985627 1.2641881 216 202 199
0.085739195 0.10985191 1.264138 224 205 199
0.08646185 0.10985191 1.264138 224 210 202
0.087181047 0.10984755 1.2640878 219 212 206
0.087900184 0.10984319 1.2640376 215 207 204
0.088619269 0.10983883 1.2639874 215 202 199
0.089334749 0.10983012 1.263887 215 204 202
0.090050101 0.10982138 1.2637867 215 206 201
0.09076535 0.10981266 1.2636863 217 209 201
0.091480486 0.10980394 1.2635859 214 207 199
0.092195503 0.10979523 1.2634856 213 205 198
0.09291409 0.10979086 1.2634355 213 203 198
0.093628913 0.10978214 1.2633351 210 199 196
0.09434735 0.10977777 1.2632848 211 198 197
0.095065743 0.10977341 1.2632346 213 201 201
0.095784083 0.10976906 1.2631844 216 205 202
0.096498527 0.10976034 1.2630841 222 211 202
0.097216718 0.10975597 1.263034 224 213 203
0.09793096 0.10974725 1.2629336 217 209 199
0.098645091 0.10973854 1.2628332 217 212 204
0.099359103 0.1097298 1.2627327 213 207 201
0.10007299 0.10972109 1.2626325 209 202 196
0.10079078 0.10971673 1.2625823 207 200 192
0.10150449 0.10970801 1.2624819 208 199 193
0.10221807 0.10969929 1.2623816 212 203 197
0 0 0 34 43 66
0.03092376 0.11095642 1.2685038 162 181 194
0.031657677 0.11098715 1.2688551 204 210 213
0.032390714 0.11101348 1.2691561 228 219 221
0.033117548 0.11101788 1.2692063 226 217 219
0.033843096 0.11101788 1.2692063 236 225 224
0.034567289 0.11101348 1.2691561 243 229 224
0.035290021 0.11100471 1.2690558 244 225 225
0.036014065 0.11100032 1.2690057 238 223 229
0.0367366 0.11099154 1.2689053 230 220 222
0.037460499 0.11098715 1.2688551 226 216 214
0.038182829 0.11097836 1.2687546 231 220 216
0.038906585 0.11097398 1.2687044 232 220 214
0.039630283 0.11096959 1.2686543 230 215 211
0.040353928 0.1109652 1.2686042 229 216 213
0.04107751 0.11096081 1.268554 225 214 210
0.041801035 0.11095642 1.2685038 225 215 209
0.042524509 0.11095203 1.2684536 228 220 214
0.04324792 0.11094765 1.2684034 222 215 211
0.043974753 0.11095203 1.2684536 225 218 214
0.044699878 0.11095203 1.2684536 215 207 203
0.045423206 0.11094765 1.2684034 209 200 194
0.046146475 0.11094326 1.2683532 112 105 98
0.046865974 0.11093009 1.2682027 63 58 57
0.047579654 0.11090375 1.2679017 53 52 57
0.04829108 0.11087302 1.2675503 45 48 54
0.049002107 0.1108423 1.267199 50 51 57
0.049710758 0.11080718 1.2667977 53 51 61
0.050426945 0.11078963 1.2665969 73 74 87
0.051146951 0.11078084 1.2664964 186 189 196
0.051868897 0.11077645 1.2664462 216 214 212
0.052592874 0.11077645 1.2664462 228 219 215
0.05331685 0.11077645 1.2664462 218 209 205
0.054042965 0.11078084 1.2664964 227 218 213
0.054766972 0.11078084 1.2664964 232 221 214
0.055488776 0.11077645 1.2664462 230 218 214
0.056210525 0.11077207 1.2663962 227 214 212
0.056932218 0.11076768 1.266346 230 216 215
0.057653852 0.11076329 1.2662958 237 225 223
0.058375426 0.11075889 1.2662456 235 225 221
0.059094604 0.11075012 1.2661452 228 217 212
0.05981604 0.11074574 1.266095 227 215 210
0.06053501 0.11073694 1.2659947 225 214 209
0.061256297 0.11073256 1.2659445 232 221 218
0.061975073 0.11072378 1.2658441 228 214 213
0.062696226 0.11071939 1.2657939 230 213 212
0.063417315 0.110715 1.2657437 223 209 207
0.064135805 0.11070623 1.2656435 224 213 212
0.064856753 0.11070184 1.2655933 222 213 213
0.065577634 0.11069745 1.2655431 217 209 210
0.066298462 0.11069305 1.2654928 219 212 213
0.067021891 0.11069305 1.2654928 219 213 212
0.067742638 0.11068866 1.2654426 213 207 204
0.068463326 0.11068428 1.2653924 209 202 197
0.069183953 0.11067989 1.2653422 207 200 194
0.069901757 0.11067111 1.265242 210 203 195
0.070622236 0.11066671 1.2651918 208 198 189
0.071339846 0.11065795 1.2650914 207 196 189
0.072060183 0.11065356 1.2650412 208 195 190
0.072780475 0.11064917 1.264991 213 197 193
0.073500693 0.11064477 1.2649407 211 199 196
0.074220866 0.11064038 1.2648907 210 201 199
0.074943945 0.11064038 1.2648907 212 201 201
0.075664029 0.110636 1.2648405 215 203 202
0.076387092 0.110636 1.2648405 218 205 205
0.077107094 0.1106316 1.2647903 216 203 204
0.077827036 0.11062721 1.2647401 210 197 198
0.078546919 0.11062282 1.2646899 214 201 198
0.079266749 0.11061844 1.2646397 211 199 192
0.079983339 0.11060966 1.2645395 209 198 191
0.080703028 0.11060527 1.2644893 205 197 190
0.081419408 0.11059648 1.2643888 203 198 192
0.082138956 0.1105921 1.2643386 208 200 195
0.082858436 0.11058771 1.2642884 213 201 197
0.083577856 0.11058332 1.2642382 215 205 200
0.084300578 0.11058332 1.2642382 215 207 203
0.085019916 0.11057892 1.2641881 212 202 198
0.085739195 0.11057454 1.264138 218 204 199
0.08646185 0.11057454 1.264138 220 209 202
0.087181047 0.11057016 1.2640878 217 210 205
0.087900184 0.11056577 1.2640376 217 210 208
0.088619269 0.11056138 1.2639874 217 207 204
0.089334749 0.11055259 1.263887 216 207 201
0.090050101 0.11054381 1.2637867 213 203 195
0.09076535 0.11053503 1.2636863 205 196 186
0.091480486 0.11052626 1.2635859 206 196 187
0.092195503 0.11051748 1.2634856 210 200 192
0.09291409 0.11051309 1.2634355 214 204 197
0.093628913 0.11050432 1.2633351 216 205 200
0.09434735 0.11049992 1.2632848 216 204 200
0.095065743 0.11049553 1.2632346 213 200 198
0.095784083 0.11049114 1.2631844 216 205 198
0.096498527 0.11048236 1.2630841 224 213 201
0.097212851 0.11047359 1.2629838 222 211 201
0.09793096 0.1104692 1.2629336 220 210 204
0.098645091 0.11046042 1.2628332 218 210 205
0.099359103 0.11045163 1.2627327 214 207 202
0.10007299 0.11044285 1.2626325 213 204 199
0.10078678 0.11043408 1.2625321 212 203 197
0.10150449 0.11042969 1.2624819 212 202 196
0.10221807 0.11042091 1.2623816 210 200 195
0 0 0 40 48 72
0.030924981 0.11168597 1.268554 164 182 196
0.031658929 0.1117169 1.2689053 202 206 209
0.032391991 0.1117434 1.2692063 227 216 219
0.033118855 0.11174782 1.2692565 229 218 221
0.033844437 0.11174782 1.2692565 241 229 229
0.034568653 0.1117434 1.2692063 245 230 226
0.035291415 0.11173457 1.2691059 243 225 225
0.036014065 0.11172573 1.2690057 233 218 222
0.036738053 0.11172131 1.2689555 226 214 215
0.037460499 0.11171248 1.2688551 228 218 216
0.038184341 0.11170806 1.2688049 230 221 217
0.038908124 0.11170363 1.2687546 235 223 217
0.039631851 0.11169922 1.2687044 230 213 210
0.040355522 0.1116948 1.2686543 228 214 213
0.04107751 0.11168597 1.268554 224 213 210
0.041801035 0.11168155 1.2685038 222 213 208
0.042524509 0.11167713 1.2684536 229 221 217
0.04324792 0.11167271 1.2684034 223 217 214
0.043973014 0.11167271 1.2684034 219 213 210
0.044699878 0.11167713 1.2684536 215 208 206
0.045425002 0.11167713 1.2684536 213 204 197
0.046146475 0.1116683 1.2683532 154 144 131
0.046869688 0.11166388 1.2683032 66 55 49
0.047583424 0.11163737 1.2680019 54 50 53
0.048296817 0.11161086 1.2677009 47 49 53
0.049005985 0.11157551 1.2672994 51 51 56
0.049716663 0.11154459 1.2669481 53 50 58
0.050428938 0.11151809 1.2666471 63 64 73
0.051148977 0.11150924 1.2665466 152 156 160
0.051868897 0.1115004 1.2664462 209 206 204
0.052592874 0.1115004 1.2664462 229 218 214
0.05331685 0.1115004 1.2664462 226 214 209
0.054040823 0.1115004 1.2664462 226 215 210
0.0547648 0.1115004 1.2664462 232 221 216
0.055488776 0.1115004 1.2664462 234 224 219
0.056210525 0.11149599 1.2663962 231 220 216
0.056934472 0.11149599 1.2663962 228 216 213
0.057653852 0.11148715 1.2662958 225 214 212
0.058375426 0.11148273 1.2662456 233 223 220
0.059096947 0.11147831 1.2661954 226 216 211
0.05981604 0.11146948 1.266095 224 213 208
0.06053501 0.11146064 1.2659947 224 212 208
0.061256297 0.11145622 1.2659445 233 220 216
0.061975073 0.11144739 1.2658441 232 215 212
0.062696226 0.11144297 1.2657939 233 213 209
0.063417315 0.11143855 1.2657437 224 208 205
0.064135805 0.11142972 1.2656435 226 215 212
0.064856753 0.1114253 1.2655933 226 216 214
0.065577634 0.11142088 1.2655431 222 211 209
0.066298462 0.11141646 1.2654928 223 213 210
0.067021891 0.11141646 1.2654928 227 216 212
0.067742638 0.11141204 1.2654426 221 211 207
0.068463326 0.11140762 1.2653924 215 205 200
0.069183953 0.1114032 1.2653422 214 206 200
0.069901757 0.11139437 1.265242 216 209 202
0.070622236 0.11138995 1.2651918 213 207 200
0.071339846 0.11138112 1.2650914 207 201 195
0.072060183 0.1113767 1.2650412 212 202 197
0.072777577 0.11136786 1.2649407 213 197 192
0.073500693 0.11136786 1.2649407 215 203 197
0.074220866 0.11136344 1.2648907 211 203 198
0.074940979 0.11135902 1.2648405 211 204 200
0.075664029 0.11135902 1.2648405 213 205 202
0.07638406 0.1113546 1.2647903 215 206 203
0.077107094 0.1113546 1.2647903 213 201 199
0.077827036 0.11135019 1.2647401 210 198 197
0.078543797 0.11134136 1.2646397 214 201 197
0.079266749 0.11134136 1.2646397 215 201 195
0.079983339 0.11133252 1.2645395 214 200 193
0.080699824 0.11132368 1.2644391 210 200 193
0.081419408 0.11131926 1.2643888 212 205 199
0.082138956 0.11131484 1.2643386 214 204 201
0.082858436 0.11131042 1.2642884 218 205 201
0.083577856 0.111306 1.2642382 216 205 201
0.084300578 0.111306 1.2642382 211 204 201
0.085019916 0.11130159 1.2641881 213 205 203
0.085739195 0.11129718 1.264138 214 204 201
0.08646185 0.11129718 1.264138 210 201 196
0.087181047 0.11129276 1.2640878 213 205 200
0.087900184 0.11128834 1.2640376 218 211 208
0.088619269 0.11128392 1.2639874 216 211 205
0.089334749 0.11127508 1.263887 215 207 199
0.090050101 0.11126624 1.2637867 212 201 192
0.09076535 0.11125741 1.2636863 206 195 186
0.091480486 0.11124858 1.2635859 207 195 186
0.092195503 0.11123974 1.2634856 209 198 189
0.09291409 0.11123532 1.2634355 208 198 191
0.093628913 0.11122648 1.2633351 211 201 195
0.09434735 0.11122205 1.2632848 214 202 196
0.095065743 0.11121764 1.2632346 217 205 199
0.095784083 0.11121323 1.2631844 224 211 202
0.096498527 0.11120439 1.2630841 226 212 200
0.097212851 0.11119556 1.2629838 222 208 198
0.097927071 0.11118672 1.2628834 219 206 201
0.098641172 0.11117788 1.2627831 221 209 206
0.099355146 0.11116905 1.2626827 218 208 203
0.10006902 0.11116021 1.2625823 215 204 199
0.10078678 0.11115579 1.2625321 213 202 197
0.10150045 0.11114696 1.2624317 219 206 200
0.10221807 0.11114254 1.2623816 220 207 201
0 0 0 42 51 76
0.030926205 0.11241557 1.2686042 171 190 204
0.031660181 0.1124467 1.2689555 202 206 208
0.032393273 0.11247338 1.2692565 221 208 211
0.033118855 0.11247338 1.2692565 234 220 225
0.033845775 0.11247782 1.2693067 244 230 231
0.03457002 0.11247338 1.2692565 246 231 228
0.035292812 0.11246448 1.2691561 242 225 225
0.036015488 0.11245559 1.2690558 229 215 218
0.036738053 0.1124467 1.2689555 226 215 215
0.037461977 0.11244226 1.2689053 235 225 222
0.038185854 0.11243781 1.2688551 233 224 221
0.038909663 0.11243336 1.2688049 219 207 203
0.039633419 0.1124289 1.2687546 222 206 204
0.040355522 0.11242002 1.2686543 231 218 217
0.041079137 0.11241557 1.2686042 230 219 218
0.041801035 0.11240667 1.2685038 223 213 211
0.042524509 0.11240223 1.2684536 229 221 218
0.043249629 0.11240223 1.2684536 227 221 218
0.043973014 0.11239778 1.2684034 220 214 213
0.044699878 0.11240223 1.2684536 219 213 212
0.045425002 0.11240223 1.2684536 221 213 203
0.0461483 0.11239778 1.2684034 194 184 164
0.046871539 0.11239333 1.2683532 84 70 61
0.047589071 0.11237554 1.2681525 57 51 53
0.048300639 0.11234442 1.2678013 48 49 52
0.049011808 0.11231329 1.26745 48 49 53
0.049722567 0.11228216 1.2670987 51 50 54
0.050434932 0.11225548 1.2667977 55 55 61
