ply
format ascii 1.0
comment PCL generated
element vertex 1198
property float x
property float y
property float z
property uchar red
property uchar green
property uchar blue
element camera 0
property float view_px
property float view_py
property float view_pz
property float x_axisx
property float x_axisy
property float x_axisz
property float y_axisx
property float y_axisy
property float y_axisz
property float z_axisx
property float z_axisy
property float z_axisz
property float focal
property float scalex
property float scaley
property float centerx
property float centery
property int viewportx
property int viewporty
property float k1
property float k2
end_header
-0.23402695 0.10292061 1.3955147 140 155 167
-0.23322082 0.10291692 1.3954647 142 159 172
-0.23241472 0.10291322 1.3954145 142 159 172
-0.23160869 0.10290951 1.3953643 143 158 170
-0.2307944 0.10290211 1.3952638 147 159 169
-0.22998025 0.10289471 1.3951634 146 154 162
-0.22916619 0.1028873 1.3950632 144 152 158
-0.22835228 0.1028799 1.3949628 147 160 168
-0.22753027 0.1028688 1.3948122 147 161 175
-0.22671659 0.1028614 1.3947117 148 160 176
-0.22590303 0.102854 1.3946115 153 163 178
-0.22508959 0.10284659 1.3945111 156 164 178
-0.22427627 0.10283919 1.3944107 154 161 174
-0.22346306 0.1028318 1.3943105 153 160 172
-0.22264995 0.10282439 1.39421 153 160 173
-0.22183697 0.10281698 1.3941096 152 162 175
-0.22102411 0.10280959 1.3940092 154 164 177
-0.22021136 0.10280219 1.393909 158 166 177
-0.21939082 0.10279109 1.3937584 160 167 175
-0.21857831 0.10278367 1.3936579 160 165 172
-0.21775809 0.10277258 1.3935075 160 166 173
-0.21694586 0.10276517 1.3934071 161 169 177
-0.21613374 0.10275777 1.3933067 160 168 176
-0.21532173 0.10275038 1.3932065 161 166 173
-0.21450983 0.10274296 1.393106 163 167 173
-0.21369806 0.10273556 1.3930056 166 173 179
-0.21289405 0.10273187 1.3929554 167 175 185
-0.21209776 0.10273187 1.3929554 169 172 184
-0.21130908 0.10273556 1.3930056 175 177 184
-0.2105355 0.10274667 1.3931562 175 180 185
-0.20977686 0.10276517 1.3934071 159 172 179
-0.20904052 0.10279478 1.3938086 124 148 157
-0.20833373 0.10283919 1.3944107 74 103 112
-0.20764862 0.10289471 1.3951634 54 81 93
-0.20699243 0.10296503 1.396117 59 84 106
-0.20636478 0.10305015 1.3972712 50 75 105
-0.20568414 0.10310936 1.398074 43 65 95
-0 0 0 33 46 76
-0 0 0 29 37 64
-0 0 0 27 37 62
-0 0 0 25 36 63
-0 0 0 22 31 59
-0 0 0 21 29 56
-0 0 0 20 27 52
-0 0 0 22 28 51
-0 0 0 22 29 51
-0 0 0 22 30 52
-0 0 0 18 28 51
-0 0 0 15 26 49
-0 0 0 14 23 46
-0 0 0 12 21 41
-0 0 0 11 20 38
-0 0 0 11 20 39
-0 0 0 11 20 40
-0.27237812 0.10374072 1.3958158 71 76 69
-0.27181455 0.10383024 1.3970202 94 108 109
-0.27122033 0.10390855 1.398074 103 120 137
-0.27055702 0.10396077 1.3987767 104 124 146
-0.26980579 0.10397942 1.3990275 104 125 149
-0.26903498 0.10399061 1.3991781 101 124 148
-0.26824474 0.10399435 1.3992282 100 124 149
-0.26743528 0.10399061 1.3991781 99 124 148
-0.26662582 0.10398687 1.3991278 101 126 150
-0.26580694 0.10397942 1.3990275 102 126 147
-0.26499769 0.10397569 1.3989773 107 131 149
-0.26418844 0.10397197 1.3989271 105 129 149
-0.26337931 0.10396823 1.3988769 103 128 151
-0.2625702 0.10396451 1.3988268 105 129 152
-0.26176116 0.10396077 1.3987767 105 129 151
-0.26095217 0.10395705 1.3987265 104 128 149
-0.26013392 0.10394959 1.3986261 106 132 150
-0.25931576 0.10394213 1.3985256 108 135 152
-0.25848848 0.10393094 1.3983752 107 134 150
-0.25767055 0.10392348 1.3982748 109 135 152
-0.25684357 0.10391229 1.3981242 110 137 155
-0.25602594 0.10390482 1.3980238 112 138 155
-0.25521758 0.1039011 1.3979737 113 138 155
-0.25440013 0.10389364 1.3978733 113 138 155
-0.25359195 0.1038899 1.3978231 115 139 158
-0.25278378 0.10388618 1.3977729 119 140 160
-0.25196666 0.10387872 1.3976727 117 140 158
-0.25114962 0.10387126 1.3975723 117 144 162
-0.25033271 0.1038638 1.3974718 120 145 165
-0.24951591 0.10385634 1.3973714 122 141 162
-0.24869922 0.10384888 1.3972712 122 140 161
-0.24787375 0.1038377 1.3971206 120 141 160
-0.24705733 0.10383024 1.3970202 122 142 160
-0.246241 0.10382277 1.3969198 124 143 159
-0.24542481 0.10381532 1.3968195 121 141 155
-0.24460873 0.10380785 1.3967191 121 143 156
-0.24379277 0.1038004 1.3966187 123 145 159
-0.24298565 0.10379667 1.3965687 122 145 160
-0.24216989 0.10378922 1.3964683 122 144 160
-0.2413629 0.10378548 1.396418 125 144 161
-0.24054733 0.10377801 1.3963176 127 144 162
-0.23973189 0.10377056 1.3962172 130 146 163
-0.23891655 0.1037631 1.396117 133 150 164
-0.23810133 0.10375565 1.3960166 134 151 164
-0.23728624 0.10374819 1.3959162 134 152 167
-0.23647122 0.10374072 1.3958158 135 153 168
-0.23565635 0.10373326 1.3957155 137 155 167
-0.23485003 0.10372953 1.3956653 139 157 168
-0.23404378 0.10372581 1.3956151 139 156 168
-0.23323758 0.10372207 1.3955649 138 154 166
-0.23243143 0.10371835 1.3955147 138 153 165
-0.23162535 0.10371462 1.3954647 140 155 166
-0.23081101 0.10370716 1.3953643 147 159 168
-0.22999679 0.10369969 1.3952638 146 155 162
-0.22917444 0.10368851 1.3951132 145 153 159
-0.22836049 0.10368105 1.395013 148 161 169
-0.22754665 0.10367359 1.3949126 148 162 177
-0.22673292 0.10366613 1.3948122 151 162 179
-0.22591929 0.10365867 1.3947117 154 164 178
-0.22510579 0.10365121 1.3946115 154 163 175
-0.22429241 0.10364375 1.3945111 153 161 172
-0.22347914 0.10363629 1.3944107 154 160 171
-0.222666 0.10362884 1.3943105 153 160 171
-0.22185293 0.10362137 1.39421 152 161 174
-0.22103205 0.10361018 1.3940594 155 165 177
-0.22021928 0.10360272 1.3939592 159 167 178
-0.21940662 0.10359527 1.3938588 162 168 177
-0.21858618 0.10358407 1.3937081 161 167 174
-0.21777378 0.10357662 1.3936077 161 167 174
-0.21696149 0.10356916 1.3935075 162 168 175
-0.21614152 0.10355797 1.3933569 161 167 174
-0.21532948 0.10355052 1.3932565 160 166 172
-0.21451755 0.10354304 1.3931562 160 166 172
-0.21371344 0.10353932 1.393106 164 172 178
-0.2129094 0.10353559 1.3930558 169 177 187
-0.21210541 0.10353186 1.3930056 171 174 185
-0.21131669 0.10353559 1.3930558 173 174 182
-0.21054311 0.10354678 1.3932065 171 177 184
-0.20977686 0.1035617 1.3934071 159 171 180
-0.20904052 0.10359154 1.3938086 124 148 159
-0.20832622 0.10363257 1.3943605 73 104 115
-0.20764114 0.10368851 1.3951132 52 78 93
-0.20699243 0.1037631 1.396117 60 84 106
-0.20636478 0.10384888 1.3972712 52 76 104
-0.20568414 0.10390855 1.398074 44 65 94
-0 0 0 34 48 76
-0 0 0 32 41 66
-0 0 0 28 39 62
-0 0 0 24 34 60
-0 0 0 22 31 59
-0 0 0 21 29 55
-0 0 0 20 27 51
-0 0 0 19 25 49
-0 0 0 19 26 49
-0 0 0 20 27 50
-0 0 0 19 28 52
-0 0 0 17 27 51
-0 0 0 14 24 47
-0 0 0 11 20 40
-0 0 0 9 18 36
-0 0 0 11 20 39
-0 0 0 12 22 42
-0.27235854 0.1045311 1.3957155 68 74 68
-0.27181455 0.10462883 1.3970202 92 107 109
-0.27122033 0.10470775 1.398074 100 118 137
-0.27055702 0.10476037 1.3987767 102 123 146
-0.26981547 0.10478292 1.3990777 98 120 143
-0.26904461 0.1047942 1.3992282 98 121 144
-0.26825437 0.10479795 1.3992784 102 126 150
-0.26745445 0.10479795 1.3992784 102 127 150
-0.26663542 0.10479043 1.3991781 101 127 150
-0.26582599 0.10478667 1.3991278 101 125 145
-0.26501667 0.10478292 1.3990777 107 131 147
-0.26419795 0.1047754 1.3989773 107 131 150
-0.26338872 0.10477164 1.3989271 104 129 153
-0.26258904 0.10477164 1.3989271 106 130 155
-0.26177993 0.10476788 1.3988769 105 130 153
-0.26096156 0.10476037 1.3987767 105 130 151
-0.26014325 0.10475285 1.3986763 107 133 153
-0.25932506 0.10474533 1.3985758 109 135 153
-0.25850698 0.10473782 1.3984754 107 134 149
-0.25767982 0.10472654 1.398325 110 136 152
-0.25686198 0.10471903 1.3982246 111 137 155
-0.25604433 0.10471151 1.3981242 111 137 154
-0.25522673 0.10470399 1.3980238 112 137 152
-0.2544184 0.10470023 1.3979737 113 138 153
-0.25361016 0.10469647 1.3979235 115 138 156
-0.25279287 0.10468896 1.3978231 116 138 157
-0.25198475 0.1046852 1.3977729 114 138 157
-0.25116765 0.10467769 1.3976727 114 142 161
-0.25034168 0.1046664 1.397522 118 143 163
-0.24952486 0.10465889 1.3974216 120 139 160
-0.24870814 0.10465138 1.3973213 121 140 159
-0.24789156 0.10464386 1.397221 121 142 161
-0.24707507 0.10463634 1.3971206 120 141 160
-0.24625871 0.10462883 1.3970202 123 143 159
-0.24544245 0.10462131 1.3969198 123 143 156
-0.24462631 0.1046138 1.3968195 123 145 157
-0.24381904 0.10461003 1.3967693 122 145 158
-0.24300312 0.10460252 1.3966689 120 143 158
-0.24218729 0.104595 1.3965687 122 144 162
-0.24138026 0.10459125 1.3965185 126 146 165
-0.24056461 0.10458372 1.396418 128 147 166
-0.23974912 0.1045762 1.3963176 129 148 165
-0.23893373 0.10456869 1.3962172 131 149 164
-0.23811845 0.10456117 1.396117 131 148 163
-0.23730329 0.10455365 1.3960166 132 150 166
-0.23648825 0.10454614 1.3959162 135 154 170
-0.23567329 0.10453862 1.3958158 138 157 171
-0.23486692 0.10453486 1.3957657 138 157 171
-0.23406062 0.1045311 1.3957155 137 155 168
-0.23325434 0.10452735 1.3956653 136 153 166
-0.23244815 0.10452359 1.3956151 138 154 165
-0.23163366 0.10451607 1.3955147 140 158 167
-0.23081931 0.10450856 1.3954145 143 158 166
-0.23000506 0.10450104 1.395314 143 153 160
-0.22919093 0.10449352 1.3952136 142 152 159
-0.22837691 0.10448601 1.3951132 143 158 167
-0.22755483 0.10447473 1.3949628 145 160 177
-0.22674108 0.10446721 1.3948624 151 162 181
-0.22592741 0.1044597 1.3947619 154 163 177
-0.2251139 0.10445218 1.3946617 154 162 172
-0.22430047 0.10444467 1.3945613 154 161 170
-0.22348718 0.10443715 1.3944609 157 162 171
-0.22267401 0.10442963 1.3943605 158 164 174
-0.22186092 0.10442211 1.3942602 156 165 176
-0.22104797 0.1044146 1.3941598 156 165 176
-0.22023514 0.10440708 1.3940594 156 165 176
-0.21941452 0.10439581 1.393909 160 167 176
-0.21860194 0.10438829 1.3938086 160 167 174
-0.21778946 0.10438077 1.3937081 159 164 171
-0.2169693 0.1043695 1.3935577 160 166 172
-0.21615709 0.10436198 1.3934573 162 167 173
-0.215345 0.10435447 1.3933569 160 166 172
-0.21453302 0.10434695 1.3932565 157 165 171
-0.21372114 0.10433942 1.3931562 162 170 178
-0.21291707 0.10433567 1.393106 172 179 189
-0.21212068 0.10433567 1.393106 173 176 186
-0.21132429 0.10433567 1.393106 172 174 183
-0.21054311 0.10434319 1.3932065 170 175 184
-0.20978442 0.10436198 1.3934573 160 172 183
-0.20904806 0.10439205 1.3938588 125 148 162
-0.20832622 0.10442963 1.3943605 73 102 116
-0.20763369 0.10448225 1.3950632 51 77 93
-0.20699243 0.10456117 1.396117 60 84 106
-0.20637219 0.10465138 1.3973213 52 75 101
-0.20569891 0.10471527 1.3981744 44 66 93
-0 0 0 38 53 79
-0 0 0 40 51 74
-0 0 0 37 49 70
-0 0 0 28 39 66
-0 0 0 26 36 64
-0 0 0 22 31 56
-0 0 0 22 30 53
-0 0 0 21 29 52
-0 0 0 20 28 52
-0 0 0 21 29 53
-0 0 0 19 28 53
-0 0 0 18 28 52
-0 0 0 14 24 47
-0 0 0 12 21 41
-0 0 0 10 18 37
-0 0 0 12 20 40
-0 0 0 13 22 42
-0.27234876 0.10532516 1.3956653 64 70 66
-0.2718243 0.10543121 1.3970704 91 106 110
-0.2712301 0.10551073 1.3981242 100 120 140
-0.2705667 0.10556375 1.3988268 100 123 146
-0.26982513 0.10558646 1.3991278 97 122 145
-0.26906389 0.10560162 1.3993286 96 120 143
-0.26827359 0.10560541 1.3993788 101 126 147
-0.26747364 0.10560541 1.3993788 103 128 150
-0.26665455 0.10559783 1.3992784 103 127 151
-0.26584509 0.10559405 1.3992282 104 128 148
-0.26502618 0.10558646 1.3991278 109 134 150
-0.2642169 0.10558268 1.3990777 109 135 153
-0.26340762 0.10557889 1.3990275 105 130 154
-0.26259845 0.10557511 1.3989773 105 130 156
-0.26178935 0.10557132 1.3989271 106 132 157
-0.26098025 0.10556754 1.3988769 105 132 154
-0.26016194 0.10555996 1.3987767 107 132 153
-0.25934368 0.10555239 1.3986763 109 134 152
-0.25851625 0.10554102 1.3985256 110 134 150
-0.2576983 0.10553345 1.3984253 111 137 153
-0.25688043 0.10552588 1.398325 111 138 156
-0.25606272 0.1055183 1.3982246 109 135 153
-0.25524506 0.10551073 1.3981242 111 136 151
-0.25443667 0.10550693 1.398074 114 139 154
-0.25361925 0.10549936 1.3979737 115 139 156
-0.25281101 0.10549558 1.3979235 114 139 156
-0.25199378 0.10548801 1.3978231 113 138 156
-0.25117669 0.10548043 1.3977227 111 138 157
-0.25035968 0.10547286 1.3976225 115 140 160
-0.24954277 0.10546528 1.397522 120 140 160
-0.24871708 0.10545392 1.3973714 123 142 160
-0.24790937 0.10545013 1.3973213 121 142 161
-0.24709281 0.10544257 1.397221 118 140 159
-0.24627639 0.10543499 1.3971206 118 139 155
-0.2454689 0.10543121 1.3970704 119 141 154
-0.24465266 0.10542362 1.3969699 121 143 155
-0.24383657 0.10541605 1.3968697 120 142 157
-0.24302056 0.10540847 1.3967693 119 141 157
-0.2422134 0.10540469 1.3967191 123 145 162
-0.2413976 0.10539712 1.3966187 126 147 164
-0.24058193 0.10538955 1.3965185 126 148 164
-0.23976634 0.10538197 1.396418 128 149 164
-0.23895089 0.10537439 1.3963176 130 149 164
-0.23813556 0.10536682 1.3962172 131 148 163
-0.23732035 0.10535925 1.396117 133 150 168
-0.23650526 0.10535168 1.3960166 135 154 172
-0.23569027 0.1053441 1.3959162 135 155 172
-0.2348838 0.10534031 1.3958659 136 154 169
-0.23406902 0.10533273 1.3957657 135 153 166
-0.23326273 0.10532895 1.3957155 135 154 165
-0.23245649 0.10532516 1.3956653 136 155 166
-0.23165032 0.10532138 1.3956151 136 156 166
-0.2308359 0.10531381 1.3955147 138 156 166
-0.23002161 0.10530624 1.3954145 141 154 163
-0.22920741 0.10529865 1.395314 141 153 160
-0.22838514 0.10528729 1.3951634 139 156 166
-0.2275712 0.10527971 1.3950632 140 156 173
-0.22675739 0.10527215 1.3949628 146 157 175
-0.2259437 0.10526457 1.3948624 152 160 174
-0.2251301 0.105257 1.3947619 153 159 169
-0.22431663 0.10524942 1.3946617 153 158 167
-0.22350326 0.10524185 1.3945613 157 161 170
-0.22269003 0.10523427 1.3944609 160 165 174
-0.2218769 0.10522671 1.3943605 157 164 173
-0.22106387 0.10521913 1.3942602 154 162 173
-0.22024305 0.10520776 1.3941096 156 165 175
-0.21943031 0.10520019 1.3940092 159 167 176
-0.21861768 0.10519262 1.393909 158 165 173
-0.21780515 0.10518505 1.3938086 156 162 169
-0.21698491 0.10517368 1.3936579 160 165 171
-0.21617265 0.10516611 1.3935577 163 168 174
-0.21536051 0.10515853 1.3934573 161 168 173
-0.21454848 0.10515096 1.3933569 156 163 170
-0.21373656 0.10514338 1.3932565 160 167 175
-0.21293242 0.10513961 1.3932065 170 175 185
-0.21212833 0.10513581 1.3931562 174 177 187
-0.2113319 0.10513581 1.3931562 173 175 183
-0.21055827 0.10514718 1.3933067 170 174 182
-0.20979197 0.10516232 1.3935075 160 170 181
-0.20904806 0.10518883 1.3938588 125 147 161
-0.20832622 0.10522671 1.3943605 75 103 117
-0.20763369 0.10527971 1.3950632 54 80 96
-0.20699987 0.10536303 1.3961672 63 87 109
-0.20638701 0.10545771 1.3974216 55 79 105
-0.20572105 0.10552588 1.398325 44 66 93
-0 0 0 39 54 80
-0 0 0 46 58 79
-0 0 0 43 56 76
-0 0 0 35 48 73
-0 0 0 29 40 68
-0 0 0 23 33 58
-0 0 0 23 33 55
-0 0 0 21 32 54
-0 0 0 20 29 52
-0 0 0 19 28 52
-0 0 0 19 28 53
-0 0 0 17 27 51
-0 0 0 14 24 46
-0 0 0 11 20 39
-0 0 0 11 19 36
-0 0 0 13 20 39
-0 0 0 14 21 41
-0.27235854 0.10612679 1.3957155 60 67 65
-0.27183408 0.10623363 1.3971206 90 106 111
-0.27123985 0.10631377 1.3981744 102 122 143
-0.27058613 0.106371 1.3989271 101 125 148
-0.2698445 0.1063939 1.3992282 99 124 147
-0.26907355 0.10640534 1.3993788 97 123 144
-0.26829281 0.10641297 1.3994792 100 125 144
-0.2674928 0.10641297 1.3994792 101 125 146
-0.26667365 0.10640534 1.3993788 101 124 149
-0.26586416 0.10640153 1.3993286 107 129 151
-0.2650452 0.1063939 1.3992282 109 132 150
-0.26423585 0.10639008 1.3991781 109 134 153
-0.26342654 0.10638626 1.3991278 105 131 155
-0.26261729 0.10638244 1.3990777 106 132 157
-0.2618081 0.10637863 1.3990275 108 134 161
-0.26098964 0.106371 1.3989271 108 134 158
-0.26018056 0.10636719 1.3988769 108 133 154
-0.25936228 0.10635956 1.3987767 109 132 150
-0.25853485 0.10634811 1.3986261 109 133 150
-0.2577168 0.10634047 1.3985256 111 137 154
-0.25688964 0.10632902 1.3983752 111 138 157
-0.2560719 0.10632139 1.3982748 110 136 154
-0.25526339 0.10631758 1.3982246 111 137 153
-0.25444582 0.10630995 1.3981242 113 138 154
-0.25363746 0.10630613 1.398074 114 139 156
-0.25282007 0.1062985 1.3979737 115 141 158
-0.25201187 0.10629468 1.3979235 115 141 158
-0.25118569 0.10628324 1.3977729 114 140 158
-0.25036865 0.10627561 1.3976727 118 142 162
-0.24955176 0.10626798 1.3975723 122 143 162
-0.24873494 0.10626034 1.3974718 122 143 161
-0.24791826 0.10625271 1.3973714 120 143 160
-0.24711056 0.10624889 1.3973213 119 142 160
-0.24630293 0.10624508 1.3972712 118 141 157
-0.24548654 0.10623745 1.3971708 118 140 155
-0.24467026 0.10622982 1.3970704 120 141 156
-0.24386285 0.106226 1.3970202 121 142 158
-0.24304675 0.10621837 1.3969198 120 143 159
-0.24223949 0.10621455 1.3968697 121 144 160
-0.24142362 0.10620692 1.3967693 123 145 160
-0.24060784 0.10619929 1.3966689 126 147 161
-0.23979221 0.10619166 1.3965687 129 151 164
-0.23896806 0.10618021 1.396418 131 151 165
-0.23815268 0.10617258 1.3963176 133 150 165
-0.2373374 0.10616495 1.3962172 135 152 170
-0.23652224 0.10615732 1.396117 135 153 173
-0.23570719 0.10614969 1.3960166 136 154 174
-0.23490071 0.10614587 1.3959664 137 154 171
-0.23408584 0.10613824 1.3958659 136 153 166
-0.2332795 0.10613442 1.3958158 138 157 168
-0.23247321 0.10613061 1.3957657 138 158 169
-0.23165867 0.10612298 1.3956653 135 156 167
-0.23084421 0.10611535 1.3955649 137 156 168
-0.23002988 0.10610772 1.3954647 142 155 167
-0.22921567 0.10610009 1.3953643 143 156 165
-0.22840156 0.10609245 1.3952638 143 160 170
-0.22758757 0.10608482 1.3951634 141 158 174
-0.22676554 0.10607338 1.395013 147 160 177
-0.22595181 0.10606574 1.3949126 155 164 179
-0.22513822 0.10605811 1.3948122 155 163 175
-0.22432469 0.10605048 1.3947117 155 162 173
-0.22351131 0.10604285 1.3946115 158 166 175
-0.22269805 0.10603522 1.3945111 159 167 176
-0.22188489 0.10602759 1.3944107 158 166 174
-0.22107185 0.10601996 1.3943105 158 166 176
-0.22025891 0.10601232 1.39421 157 166 176
-0.21944611 0.10600469 1.3941096 158 166 175
-0.21863341 0.10599706 1.3940092 157 164 172
-0.21782084 0.10598943 1.393909 158 162 170
-0.21700056 0.10597799 1.3937584 162 166 173
-0.21618822 0.10597035 1.3936579 165 170 175
-0.215376 0.10596272 1.3935577 163 169 175
-0.2145562 0.10595127 1.3934071 159 165 173
-0.21375196 0.10594746 1.3933569 161 165 174
-0.21294008 0.10593983 1.3932565 168 171 182
-0.21213597 0.10593601 1.3932065 173 175 185
-0.21134715 0.10593983 1.3932565 172 174 181
-0.21056584 0.10594746 1.3933569 165 170 177
-0.20979953 0.10596272 1.3935577 156 167 177
-0.20905559 0.10598943 1.393909 126 146 159
-0.20832622 0.10602377 1.3943605 79 105 119
-0.20764114 0.10608101 1.3951132 58 83 101
-0.20699987 0.10616113 1.3961672 65 89 113
-0.20640184 0.10626416 1.397522 54 79 106
-0.20573582 0.10633284 1.3984253 43 65 92
-0 0 0 37 52 76
-0 0 0 42 53 73
-0 0 0 38 50 69
-0 0 0 35 48 72
-0 0 0 29 41 67
-0 0 0 25 35 58
-0 0 0 22 34 56
-0 0 0 20 31 53
-0 0 0 18 27 50
-0 0 0 19 27 52
-0 0 0 18 27 53
-0 0 0 16 26 50
-0 0 0 13 23 45
-0 0 0 11 20 38
-0 0 0 10 17 34
-0 0 0 11 18 37
-0 0 0 13 21 41
-0.27237812 0.10693233 1.3958158 57 62 62
-0.27184382 0.10703613 1.3971708 87 104 110
-0.27124953 0.10711686 1.3982246 100 122 142
-0.27059582 0.10717452 1.3989773 100 125 147
-0.26985419 0.10719759 1.3992784 99 125 147
-0.26909286 0.10721297 1.3994792 98 124 143
-0.26831207 0.10722066 1.3995795 99 124 141
-0.26750237 0.10721681 1.3995293 100 122 143
-0.26669279 0.10721297 1.3994792 100 121 146
-0.2658737 0.10720529 1.3993788 105 125 148
-0.26506421 0.10720144 1.3993286 106 128 148
-0.26424533 0.10719375 1.3992282 107 131 152
-0.26343602 0.10718991 1.3991781 108 133 155
-0.26262671 0.10718606 1.3991278 106 131 155
-0.26181751 0.10718221 1.3990777 105 130 156
-0.26100832 0.10717837 1.3990275 109 132 157
-0.26019925 0.10717452 1.3989773 111 134 155
-0.25938088 0.10716684 1.3988769 110 133 152
-0.25855342 0.1071553 1.3987265 109 132 151
-0.25773531 0.10714762 1.3986261 110 134 153
-0.2569173 0.10713992 1.3985256 111 135 156
-0.25609028 0.1071284 1.3983752 110 136 155
-0.25528172 0.10712455 1.398325 111 137 155
-0.25446409 0.10711686 1.3982246 110 136 152
-0.25364658 0.10710917 1.3981242 112 138 155
-0.25283822 0.10710532 1.398074 114 141 158
-0.25202093 0.10709763 1.3979737 115 141 159
-0.25120372 0.10708995 1.3978733 118 144 162
-0.25038666 0.10708226 1.3977729 121 144 162
-0.24956967 0.10707457 1.3976727 120 142 161
-0.24875282 0.10706688 1.3975723 120 143 162
-0.24793607 0.10705919 1.3974718 119 144 163
-0.24712831 0.10705534 1.3974216 119 144 162
-0.24632062 0.10705151 1.3973714 118 143 161
-0.24551299 0.10704766 1.3973213 121 143 160
-0.24469663 0.10703997 1.397221 124 143 160
-0.24388912 0.10703613 1.3971708 124 144 160
-0.24307297 0.10702844 1.3970704 122 145 162
-0.24225689 0.10702074 1.3969699 121 145 161
-0.24144097 0.10701305 1.3968697 123 145 161
-0.24062514 0.10700537 1.3967693 126 148 164
-0.23980944 0.10699768 1.3966689 130 152 167
-0.23898526 0.10698615 1.3965185 132 152 169
-0.23816979 0.10697845 1.396418 133 151 168
-0.23734593 0.10696693 1.3962674 134 150 170
-0.23653075 0.10695924 1.3961672 135 150 171
-0.23572414 0.1069554 1.396117 137 152 173
-0.23490915 0.10694771 1.3960166 139 155 173
-0.2341027 0.10694386 1.3959664 140 157 170
-0.23329629 0.10694002 1.3959162 141 159 169
-0.23248993 0.10693616 1.3958659 138 157 169
-0.23167531 0.10692848 1.3957657 135 155 168
-0.23086081 0.10692079 1.3956653 136 154 169
-0.23004642 0.10691311 1.3955649 140 154 166
-0.22923215 0.10690542 1.3954647 142 156 164
-0.22840975 0.10689388 1.395314 143 159 168
-0.22759575 0.10688619 1.3952136 143 159 174
-0.22678186 0.1068785 1.3951132 148 162 178
-0.22596808 0.10687082 1.395013 150 162 176
-0.2251544 0.10686313 1.3949126 148 159 171
-0.22434086 0.10685544 1.3948122 152 163 173
-0.22352739 0.10684775 1.3947117 154 166 175
-0.22271407 0.10684006 1.3946115 153 165 174
-0.22190087 0.10683238 1.3945111 155 164 174
-0.22108777 0.10682468 1.3944107 158 166 177
-0.22027478 0.106817 1.3943105 158 166 177
-0.2194619 0.1068093 1.39421 159 166 176
-0.21864915 0.10680161 1.3941096 159 164 173
-0.21783651 0.10679393 1.3940092 160 164 171
-0.21701618 0.10678239 1.3938588 165 167 174
-0.21620379 0.10677471 1.3937584 167 170 176
-0.21538377 0.10676317 1.3936077 163 167 173
-0.21457165 0.10675549 1.3935075 160 165 172
-0.21375965 0.1067478 1.3934071 163 165 173
-0.21295542 0.10674395 1.3933569 169 169 179
-0.21215126 0.10674011 1.3933067 172 173 182
-0.21135476 0.10674011 1.3933067 172 174 180
-0.21057342 0.1067478 1.3934071 164 170 175
-0.20980708 0.10676317 1.3936077 156 166 175
-0.20905559 0.10678624 1.393909 127 145 157
-0.20832622 0.10682084 1.3943605 82 104 117
-0.20764114 0.1068785 1.3951132 61 85 102
-0.2070073 0.10696308 1.3962172 65 90 114
-0.20640926 0.10706688 1.3975723 51 75 103
-0.20575058 0.10713992 1.3985256 40 62 88
-0 0 0 35 48 72
-0 0 0 38 47 68
-0 0 0 35 46 66
-0 0 0 33 44 68
-0 0 0 27 38 64
-0 0 0 25 35 58
-0 0 0 21 33 55
-0 0 0 19 30 52
-0 0 0 19 28 51
-0 0 0 21 29 53
-0 0 0 19 28 54
-0 0 0 16 26 51
-0 0 0 14 23 46
-0 0 0 11 20 39
-0 0 0 10 17 35
-0 0 0 11 17 37
-0 0 0 12 21 41
-0.2724075 0.10774186 1.3959664 51 55 57
-0.27186334 0.10784254 1.3972712 85 102 108
-0.27125928 0.10792001 1.3982748 98 120 139
-0.27060553 0.10797811 1.3990275 98 123 144
-0.26987353 0.10800522 1.3993788 97 123 143
-0.26911214 0.10802071 1.3995795 97 122 140
-0.26832169 0.10802458 1.3996296 99 123 138
-0.26752159 0.10802458 1.3996296 101 122 142
-0.26671189 0.10802071 1.3995795 103 123 148
-0.26589277 0.10801296 1.3994792 105 125 150
-0.26508322 0.10800909 1.399429 104 127 150
-0.26426429 0.10800135 1.3993286 105 130 152
-0.26345488 0.10799748 1.3992784 108 134 155
-0.26264557 0.10799361 1.3992282 106 132 154
-0.26183629 0.10798973 1.3991781 103 129 154
-0.26102707 0.10798585 1.3991278 106 131 154
-0.26021791 0.10798198 1.3990777 110 134 154
-0.2593995 0.10797424 1.3989773 110 133 153
-0.25858122 0.10796648 1.3988769 109 133 154
-0.25775379 0.10795487 1.3987265 111 135 156
-0.25693578 0.10794713 1.3986261 111 136 157
-0.25610864 0.1079355 1.3984754 110 135 156
-0.25529087 0.10792775 1.3983752 110 135 155
-0.25448236 0.10792388 1.398325 109 136 154
-0.25366479 0.10791614 1.3982246 111 138 155
-0.25284731 0.10790839 1.3981242 113 140 158
-0.25202996 0.10790064 1.3980238 115 141 160
-0.25121275 0.1078929 1.3979235 119 143 162
-0.25039563 0.10788515 1.3978231 119 142 158
-0.24957862 0.10787741 1.3977227 118 140 158
-0.24877067 0.10787354 1.3976727 120 143 164
-0.24795389 0.10786579 1.3975723 118 142 165
-0.24714606 0.10786191 1.397522 116 140 162
-0.24633831 0.10785804 1.3974718 117 142 163
-0.24553061 0.10785417 1.3974216 121 143 164
-0.24471419 0.10784642 1.3973213 124 144 163
-0.24390665 0.10784254 1.3972712 124 145 162
-0.24309042 0.1078348 1.3971708 123 147 163
-0.24227433 0.10782706 1.3970704 122 147 165
-0.2414583 0.1078193 1.3969699 123 146 165
-0.24064243 0.10781156 1.3968697 126 148 168
-0.23981805 0.10779994 1.3967191 128 150 170
-0.23900242 0.1077922 1.3966187 130 150 171
-0.23817837 0.10778058 1.3964683 131 149 170
-0.237363 0.10777283 1.3963678 132 148 168
-0.23654774 0.10776509 1.3962674 136 151 171
-0.2357326 0.10775734 1.3961672 137 152 174
-0.23492604 0.10775347 1.396117 138 154 173
-0.23411952 0.1077496 1.3960668 139 155 168
-0.23331307 0.10774572 1.3960166 138 156 167
-0.2324983 0.10773797 1.3959162 137 155 168
-0.23169197 0.1077341 1.3958659 135 154 169
-0.23087741 0.10772636 1.3957657 136 154 170
-0.23006296 0.1077186 1.3956653 139 153 166
-0.2292404 0.10770699 1.3955147 139 152 160
-0.2284262 0.10769925 1.3954145 139 154 162
-0.22761212 0.10769149 1.395314 142 157 169
-0.22679818 0.10768375 1.3952136 145 159 173
-0.22598433 0.107676 1.3951132 148 161 174
-0.2251706 0.10766826 1.395013 148 163 174
-0.22435699 0.10766052 1.3949126 148 163 171
-0.22354349 0.10765277 1.3948122 149 163 172
-0.22273009 0.10764502 1.3947117 153 165 176
-0.22191682 0.10763728 1.3946115 156 164 177
-0.22110367 0.10762953 1.3945111 156 163 177
-0.22029063 0.10762178 1.3944107 156 165 178
-0.21947771 0.10761403 1.3943105 157 165 176
-0.21866488 0.10760628 1.39421 158 163 172
-0.21785219 0.10759854 1.3941096 159 163 171
-0.21703181 0.10758692 1.3939592 163 166 172
-0.21621938 0.10757918 1.3938588 164 167 173
-0.21539928 0.10756755 1.3937081 161 165 171
-0.21458709 0.10755981 1.3936077 159 163 169
-0.21377504 0.10755207 1.3935075 164 165 172
-0.21296309 0.10754432 1.3934071 170 170 178
-0.21215889 0.10754045 1.3933569 172 173 181
-0.21136236 0.10754045 1.3933569 171 174 179
-0.210581 0.10754819 1.3934573 167 174 178
-0.20981464 0.10756368 1.3936579 159 169 176
-0.20905559 0.10758305 1.393909 129 142 152
-0.20832622 0.10761791 1.3943605 85 101 113
-0.20764862 0.10767988 1.3951634 65 87 102
-0.20701474 0.10776509 1.3962674 67 91 115
-0.20642409 0.10787354 1.3976727 51 75 104
-0.20576537 0.10794713 1.3986261 38 59 85
-0 0 0 33 46 69
-0 0 0 36 44 67
-0 0 0 33 44 67
-0 0 0 30 40 66
-0 0 0 25 35 61
-0 0 0 23 34 57
-0 0 0 21 32 54
-0 0 0 19 31 53
-0 0 0 19 29 52
-0 0 0 22 30 55
-0 0 0 21 30 56
-0 0 0 18 28 53
-0 0 0 14 24 47
-0 0 0 10 19 39
-0 0 0 8 16 34
-0 0 0 11 18 39
-0 0 0 12 21 43
-0.27242708 0.10854764 1.3960668 49 53 56
-0.27191213 0.10866079 1.397522 84 100 106
-0.27127874 0.10872712 1.3983752 96 118 136
-0.27062494 0.10878564 1.3991278 97 122 142
-0.26989287 0.10881296 1.3994792 95 121 141
-0.2691218 0.10882466 1.3996296 96 121 139
-0.26834095 0.10883247 1.3997301 101 124 140
-0.26754078 0.10883247 1.3997301 103 124 142
-0.26673102 0.10882856 1.3996798 105 126 150
-0.26591182 0.10882077 1.3995795 106 129 153
-0.26510224 0.10881685 1.3995293 104 129 153
-0.26428324 0.10880906 1.399429 102 128 150
-0.26347378 0.10880516 1.3993788 104 132 152
-0.26266441 0.10880125 1.3993286 104 131 152
-0.26185507 0.10879736 1.3992784 105 133 156
-0.26104581 0.10879346 1.3992282 107 135 157
-0.26023656 0.10878955 1.3991781 108 135 155
-0.2594181 0.10878175 1.3990777 107 132 152
-0.25859976 0.10877394 1.3989773 106 131 151
-0.25777227 0.10876223 1.3988268 108 132 152
-0.25695419 0.10875443 1.3987265 109 134 153
-0.256127 0.10874272 1.3985758 109 133 153
-0.25530919 0.10873492 1.3984754 108 133 154
-0.25449148 0.10872712 1.3983752 110 136 157
-0.25367388 0.10871932 1.3982748 112 139 156
-0.2528564 0.10871152 1.3981744 113 139 158
-0.25203902 0.1087037 1.398074 114 139 160
-0.25122175 0.1086959 1.3979737 119 142 161
-0.25040463 0.1086881 1.3978733 121 143 159
-0.24959654 0.1086842 1.3978231 120 142 159
-0.24877962 0.1086764 1.3977227 117 139 161
-0.2479717 0.1086725 1.3976727 114 137 160
-0.24716382 0.1086686 1.3976225 115 138 160
-0.24635603 0.1086647 1.3975723 118 142 164
-0.24554825 0.10866079 1.397522 117 141 163
-0.24473177 0.10865299 1.3974216 121 143 163
-0.24392417 0.10864908 1.3973714 124 146 163
-0.24310789 0.10864128 1.3972712 122 147 163
-0.24229172 0.10863347 1.3971708 121 146 163
-0.24147566 0.10862568 1.3970704 123 147 165
-0.24065106 0.10861397 1.3969198 125 148 167
-0.23982666 0.10860226 1.3967693 126 147 167
-0.23901102 0.10859446 1.3966689 129 148 169
-0.23818693 0.10858276 1.3965185 132 149 168
-0.23737152 0.10857494 1.396418 133 149 168
-0.23655625 0.10856715 1.3963176 136 152 170
-0.23574956 0.10856324 1.3962674 135 151 171
-0.23494291 0.10855934 1.3962172 135 151 169
-0.23412792 0.10855155 1.396117 136 153 166
-0.23332144 0.10854764 1.3960668 136 154 165
-0.23251501 0.10854374 1.3960166 135 153 166
-0.23170032 0.10853594 1.3959162 134 153 168
-0.23088571 0.10852813 1.3958158 136 154 171
-0.23007123 0.10852032 1.3957155 139 153 168
-0.22925688 0.10851252 1.3956151 139 152 160
-0.22844264 0.10850472 1.3955147 140 154 162
-0.22762851 0.10849692 1.3954145 144 157 170
-0.22681448 0.1084891 1.395314 146 159 173
-0.22600058 0.10848131 1.3952136 145 159 171
-0.22518679 0.1084735 1.3951132 143 161 171
-0.22437312 0.10846571 1.395013 145 163 171
-0.22355957 0.1084579 1.3949126 147 162 170
-0.22274613 0.1084501 1.3948122 151 162 174
-0.22193278 0.10844228 1.3947117 157 163 176
-0.22111958 0.10843448 1.3946115 158 164 176
-0.22030649 0.10842668 1.3945111 156 165 177
-0.21949351 0.10841888 1.3944107 155 165 175
-0.21868065 0.10841108 1.3943105 157 163 171
-0.21786788 0.10840327 1.39421 160 163 171
-0.21704742 0.10839156 1.3940594 161 163 171
-0.21623494 0.10838377 1.3939592 162 164 171
-0.21541479 0.10837206 1.3938086 162 166 171
-0.21460256 0.10836425 1.3937081 160 163 169
-0.21378273 0.10835255 1.3935577 167 167 173
-0.21297076 0.10834474 1.3934573 174 173 180
-0.21216653 0.10834084 1.3934071 173 174 181
-0.21136998 0.10834084 1.3934071 170 174 178
-0.21058859 0.10834865 1.3935075 168 175 180
-0.20981464 0.10836035 1.3936579 160 167 177
-0.20906311 0.10838377 1.3939592 130 137 149
-0.20832622 0.10841498 1.3943605 85 95 107
-0.20764862 0.1084774 1.3951634 69 87 102
-0.20702219 0.10856715 1.3963176 68 91 116
-0.2064389 0.1086803 1.3977729 53 76 106
-0.20578751 0.10875834 1.3987767 38 58 84
-0 0 0 32 45 68
-0 0 0 36 44 68
-0 0 0 32 42 65
-0 0 0 28 38 63
-0 0 0 25 35 60
-0 0 0 23 33 56
-0 0 0 21 32 54
-0 0 0 20 30 52
-0 0 0 20 29 51
-0 0 0 23 30 54
-0 0 0 22 31 56
-0 0 0 20 30 55
-0 0 0 16 26 50
-0 0 0 11 20 41
-0 0 0 10 17 37
-0 0 0 13 20 41
-0 0 0 14 22 44
-0 0 0 50 55 58
-0.27194145 0.10947146 1.3976727 83 98 105
-0.27129823 0.10953434 1.3984754 95 115 133
-0.27063468 0.10958938 1.3991781 96 121 142
-0.26990256 0.10961688 1.3995293 95 121 142
-0.26914111 0.10963261 1.3997301 98 123 142
-0.26836017 0.10964047 1.3998305 102 125 143
-0.26755998 0.10964047 1.3998305 101 123 142
-0.26675016 0.10963655 1.3997803 103 126 148
-0.26593089 0.10962867 1.3996798 104 129 151
-0.26512125 0.10962474 1.3996296 103 129 151
-0.26430219 0.10961688 1.3995293 101 128 149
-0.26349267 0.10961296 1.3994792 102 130 149
-0.26268321 0.10960902 1.399429 103 131 150
-0.26187384 0.1096051 1.3993788 106 133 154
-0.2610645 0.10960116 1.3993286 108 134 155
-0.26025525 0.10959724 1.3992784 109 134 154
-0.25943673 0.10958938 1.3991781 108 132 151
-0.25861832 0.10958151 1.3990777 106 130 148
-0.25779077 0.10956972 1.3989271 107 131 149
-0.2569634 0.10955793 1.3987767 109 133 150
-0.25614542 0.10955007 1.3986763 111 135 154
-0.25532752 0.10954221 1.3985758 109 134 157
-0.25450975 0.10953434 1.3984754 109 136 158
-0.25369209 0.10952649 1.3983752 111 138 157
-0.25287455 0.10951862 1.3982748 114 139 158
-0.25205711 0.10951076 1.3981744 113 136 158
-0.25123981 0.1095029 1.398074 117 139 160
-0.2504226 0.10949504 1.3979737 121 142 160
-0.24960552 0.10948718 1.3978733 121 142 160
-0.24878855 0.10947932 1.3977729 117 139 160
-0.24798059 0.10947539 1.3977227 114 137 159
-0.2471727 0.10947146 1.3976727 116 139 161
-0.24636485 0.10946753 1.3976225 118 142 164
-0.24555708 0.1094636 1.3975723 117 141 164
-0.24474934 0.10945966 1.397522 122 145 166
-0.24393292 0.10945181 1.3974216 123 146 164
-0.24312533 0.10944787 1.3973714 120 146 162
-0.24230042 0.10943608 1.397221 122 147 164
-0.24148434 0.10942822 1.3971206 125 150 166
-0.24065971 0.10941643 1.3969699 124 148 166
-0.23984389 0.10940857 1.3968697 125 146 165
-0.2390196 0.10939679 1.3967191 130 149 166
-0.23819548 0.10938498 1.3965687 134 150 167
-0.23738007 0.10937713 1.3964683 136 151 167
-0.23656474 0.10936926 1.3963678 138 153 169
-0.23575802 0.10936534 1.3963176 136 152 170
-0.23495138 0.1093614 1.3962674 134 151 168
-0.23414476 0.10935748 1.3962172 135 152 167
-0.23333821 0.10935355 1.3961672 139 156 169
-0.23253173 0.10934962 1.396117 140 156 169
-0.23171696 0.10934176 1.3960166 138 155 169
-0.23090233 0.1093339 1.3959162 137 154 171
-0.23008777 0.10932603 1.3958158 138 152 168
-0.22927336 0.10931817 1.3957155 140 153 163
-0.22845906 0.10931031 1.3956151 143 156 165
-0.22764488 0.10930245 1.3955147 147 161 173
-0.22683081 0.10929459 1.3954145 149 163 176
-0.22601683 0.10928672 1.395314 146 161 171
-0.22520299 0.10927887 1.3952136 145 163 171
-0.22438927 0.109271 1.3951132 147 165 173
-0.22357565 0.10926314 1.395013 148 162 170
-0.22276217 0.10925528 1.3949126 151 160 171
-0.22194877 0.10924743 1.3948122 156 161 173
-0.2211355 0.10923956 1.3947117 156 162 172
-0.22032234 0.1092317 1.3946115 156 165 174
-0.2195093 0.10922384 1.3945111 157 166 175
-0.21869639 0.10921598 1.3944107 158 163 172
-0.21787572 0.10920418 1.3942602 158 161 170
-0.21706305 0.10919632 1.3941598 159 161 170
-0.21625051 0.10918846 1.3940594 162 165 172
-0.21543032 0.10917667 1.393909 162 167 172
-0.21461029 0.10916489 1.3937584 160 164 169
-0.21379812 0.10915701 1.3936579 166 167 172
-0.2129861 0.10914916 1.3935577 175 174 179
-0.21217418 0.1091413 1.3934573 174 176 181
-0.21137759 0.1091413 1.3934573 168 172 176
-0.21058859 0.10914522 1.3935075 166 170 177
-0.20982219 0.10916095 1.3937081 154 159 173
-0.20906311 0.1091806 1.3939592 119 123 140
-0.20832622 0.10921205 1.3943605 80 87 100
-0.20764862 0.10927493 1.3951634 68 84 99
-0.20702219 0.10936534 1.3963176 66 89 114
-0.2064463 0.10948325 1.3978231 54 76 106
-0.20580228 0.10956579 1.3988769 36 56 81
-0 0 0 27 41 64
-0 0 0 34 43 66
-0 0 0 31 41 64
-0 0 0 28 37 61
-0 0 0 26 35 59
-0 0 0 23 32 55
-0 0 0 22 31 54
-0 0 0 20 30 52
-0 0 0 20 29 51
-0 0 0 23 30 54
-0 0 0 22 32 56
-0 0 0 22 33 58
-0 0 0 18 28 53
-0 0 0 13 22 44
-0 0 0 11 20 41
-0 0 0 11 20 42
-0 0 0 13 23 45
-0 0 0 50 54 58
-0.27194145 0.11027043 1.3976727 83 95 102
-0.27130795 0.11033772 1.3985256 95 114 131
-0.27065408 0.11039712 1.3992784 93 119 139
-0.2699219 0.11042482 1.3996296 95 122 144
-0.26916039 0.11044066 1.3998305 98 123 145
-0.26836979 0.11044463 1.3998806 99 123 143
-0.26756954 0.11044463 1.3998806 99 122 142
-0.26675972 0.11044066 1.3998305 100 125 146
-0.26594999 0.11043671 1.3997803 101 128 150
-0.26514027 0.11043274 1.3997301 101 129 151
-0.26432115 0.11042482 1.3996296 100 128 150
-0.26351157 0.11042087 1.3995795 103 130 150
-0.26270205 0.11041691 1.3995293 105 131 150
-0.26189265 0.11041295 1.3994792 108 132 152
-0.26108325 0.11040899 1.399429 109 132 152
-0.26026458 0.11040108 1.3993286 109 131 151
-0.25945535 0.11039712 1.3992784 110 130 150
-0.25862759 0.11038523 1.3991278 108 130 148
-0.25780925 0.11037731 1.3990275 109 132 150
-0.25698185 0.11036544 1.3988769 110 134 151
-0.25616378 0.11035752 1.3987767 110 134 153
-0.2553367 0.11034565 1.3986261 107 133 155
-0.25451887 0.11033772 1.3985256 108 136 158
-0.25370118 0.11032981 1.3984253 112 138 157
-0.25288361 0.11032189 1.398325 114 137 157
-0.25206617 0.11031397 1.3982246 113 133 155
-0.25124884 0.11030606 1.3981242 114 133 154
-0.25043157 0.11029813 1.3980238 118 136 154
-0.24961448 0.11029021 1.3979235 120 139 157
-0.2488064 0.11028626 1.3978733 118 139 158
-0.2479984 0.11028229 1.3978231 116 138 158
-0.24719045 0.11027835 1.3977729 116 140 160
-0.24638255 0.11027438 1.3977227 116 140 161
-0.24557471 0.11027043 1.3976727 118 141 163
-0.24475814 0.11026251 1.3975723 122 144 165
-0.24395044 0.11025853 1.397522 122 145 164
-0.24313407 0.11025062 1.3974216 121 146 164
-0.24231781 0.11024271 1.3973213 120 145 163
-0.24149302 0.11023083 1.3971708 122 147 164
-0.24067701 0.11022291 1.3970704 124 148 165
-0.2398525 0.11021103 1.3969198 127 149 166
-0.23902819 0.11019916 1.3967693 133 151 167
-0.2382126 0.11019124 1.3966689 136 151 166
-0.2373886 0.11017936 1.3965185 137 151 166
-0.23658176 0.11017541 1.3964683 136 150 166
-0.2357665 0.11016748 1.3963678 135 151 169
-0.23495981 0.11016352 1.3963176 135 153 170
-0.23416159 0.11016352 1.3963176 137 155 170
-0.23335499 0.11015956 1.3962674 140 156 170
-0.23254009 0.11015165 1.3961672 141 155 170
-0.23173362 0.11014769 1.396117 140 153 169
-0.23091893 0.11013977 1.3960166 138 151 169
-0.23010434 0.11013185 1.3959162 136 151 167
-0.22928984 0.11012393 1.3958158 138 153 164
-0.2284755 0.11011601 1.3957155 142 155 164
-0.22766124 0.11010809 1.3956151 146 160 173
-0.22684713 0.11010018 1.3955147 148 163 176
-0.22603311 0.11009226 1.3954145 146 162 172
-0.22521919 0.11008433 1.395314 145 163 171
-0.22440541 0.11007641 1.3952136 148 164 173
-0.22359173 0.11006851 1.3951132 150 162 171
-0.22277819 0.11006059 1.395013 153 161 172
-0.22196475 0.11005268 1.3949126 156 162 172
-0.22115143 0.11004476 1.3948122 154 160 169
-0.2203382 0.11003683 1.3947117 153 160 169
-0.2195251 0.11002891 1.3946115 154 161 170
-0.21871211 0.110021 1.3945111 156 160 169
-0.21789142 0.11000912 1.3943605 155 158 168
-0.21707867 0.11000119 1.3942602 157 160 170
-0.21626607 0.10999328 1.3941598 162 166 174
-0.21544582 0.1099814 1.3940092 162 167 173
-0.21462575 0.10996953 1.3938588 160 165 171
-0.21381354 0.10996161 1.3937584 165 165 170
-0.21299376 0.10994972 1.3936077 172 171 175
-0.21218945 0.10994577 1.3935577 173 176 180
-0.21138521 0.10994181 1.3935075 167 171 175
-0.21059617 0.10994577 1.3935577 165 168 175
-0.20982219 0.10995764 1.3937081 152 153 168
-0.20906311 0.10997744 1.3939592 116 118 136
-0.20832622 0.11000912 1.3943605 85 91 106
-0.20764862 0.11007246 1.3951634 69 85 102
-0.20702961 0.11016748 1.3963678 65 88 113
-0.20645373 0.11028626 1.3978733 53 74 104
-0.20581703 0.11037336 1.3989773 32 52 77
-0 0 0 23 38 60
-0 0 0 27 38 60
-0 0 0 27 37 59
-0 0 0 27 36 58
-0 0 0 24 33 55
-0 0 0 22 30 52
-0 0 0 21 30 52
-0 0 0 21 29 51
-0 0 0 21 29 50
-0 0 0 23 31 54
-0 0 0 24 34 57
-0 0 0 23 33 58
-0 0 0 18 28 53
-0 0 0 13 22 45
-0 0 0 11 21 43
-0 0 0 10 20 42
-0 0 0 12 22 44
-0 0 0 45 49 55
-0.27193171 0.1110654 1.3976225 81 91 98
-0.27131769 0.11114116 1.3985758 98 115 131
-0.2706638 0.11120098 1.3993286 93 119 139
-0.26994127 0.11123288 1.3997301 94 121 144
-0.26917005 0.11124485 1.3998806 99 123 146
-0.26838905 0.11125282 1.3999809 100 123 145
-0.2675887 0.11125282 1.3999809 100 124 145
-0.26677883 0.11124884 1.3999308 100 125 146
-0.26596904 0.11124485 1.3998806 101 128 150
-0.26515928 0.11124086 1.3998305 102 129 153
-0.26434958 0.11123688 1.3997803 101 129 151
-0.26353046 0.11122889 1.3996798 103 130 151
-0.26272091 0.1112249 1.3996296 106 130 150
-0.26191142 0.11122092 1.3995795 108 131 151
-0.26110196 0.11121693 1.3995293 108 130 150
-0.26028323 0.11120896 1.399429 109 130 151
-0.25946462 0.11120098 1.3993286 110 131 151
-0.25864616 0.11119301 1.3992282 112 133 154
-0.25781852 0.11118104 1.3990777 113 135 155
-0.25700027 0.11117306 1.3989773 114 137 156
-0.25617298 0.11116111 1.3988268 113 137 156
-0.255355 0.11115313 1.3987265 108 134 155
-0.25453717 0.11114515 1.3986261 108 136 156
-0.2537103 0.11113319 1.3984754 111 137 157
-0.25289267 0.11112522 1.3983752 113 136 155
-0.25207523 0.11111724 1.3982748 115 135 156
-0.25125784 0.11110927 1.3981744 117 136 156
-0.25044057 0.11110128 1.398074 119 138 155
-0.24962343 0.11109331 1.3979737 119 138 155
-0.24881534 0.11108932 1.3979235 115 136 153
-0.2480073 0.11108533 1.3978733 114 137 154
-0.24719931 0.11108135 1.3978231 117 140 158
-0.24639139 0.11107736 1.3977729 119 142 160
-0.24558352 0.11107337 1.3977227 118 141 160
-0.24477573 0.11106938 1.3976727 120 142 162
-0.24395922 0.11106141 1.3975723 121 144 164
-0.2431428 0.11105343 1.3974718 120 145 165
-0.24232653 0.11104546 1.3973714 120 145 165
-0.24151036 0.11103749 1.3972712 122 146 164
-0.24068567 0.11102552 1.3971206 123 146 163
-0.23986112 0.11101355 1.3969699 127 148 164
-0.23903677 0.11100159 1.3968195 134 152 167
-0.23822115 0.11099362 1.3967191 134 150 164
-0.23740566 0.11098564 1.3966187 133 147 163
-0.23659025 0.11097767 1.3965185 133 146 164
-0.23578346 0.11097368 1.3964683 134 148 167
-0.23497668 0.11096968 1.396418 137 155 172
-0.23417 0.1109657 1.3963678 139 157 172
-0.23336338 0.11096171 1.3963176 141 157 172
-0.23255679 0.11095773 1.3962674 140 154 172
-0.23174196 0.11094975 1.3961672 138 150 169
-0.23092721 0.11094178 1.3960668 137 149 168
-0.23011261 0.1109338 1.3959664 137 152 168
-0.22929808 0.11092582 1.3958659 136 151 163
-0.22848371 0.11091784 1.3957657 139 153 163
-0.22766943 0.11090986 1.3956653 144 157 170
-0.22686343 0.11090589 1.3956151 145 160 173
-0.22604936 0.11089791 1.3955147 145 161 172
-0.2252354 0.11088993 1.3954145 145 161 171
-0.22442155 0.11088195 1.395314 148 161 172
-0.22360782 0.11087397 1.3952136 151 161 172
-0.2227942 0.110866 1.3951132 154 161 171
-0.22198071 0.11085803 1.395013 154 160 171
-0.22116733 0.11085005 1.3949126 155 160 171
-0.22035407 0.11084208 1.3948122 154 160 171
-0.21954089 0.1108341 1.3947117 154 160 171
-0.21872786 0.11082613 1.3946115 156 161 172
-0.21790709 0.11081416 1.3944609 155 160 172
-0.21709432 0.11080619 1.3943605 157 161 173
-0.21628164 0.1107982 1.3942602 161 165 175
-0.21546131 0.11078624 1.3941096 161 167 175
-0.21464118 0.11077429 1.3939592 163 168 174
-0.21382123 0.11076232 1.3938086 166 166 170
-0.21300909 0.11075434 1.3937081 170 169 172
-0.2121971 0.11074637 1.3936077 172 176 180
-0.2113928 0.11074238 1.3935577 167 172 177
-0.21059617 0.11074238 1.3935577 166 169 177
-0.20982219 0.11075434 1.3937081 156 158 172
-0.20906311 0.11077429 1.3939592 128 134 152
-0.20832622 0.11080619 1.3943605 93 103 120
-0.20764862 0.11086999 1.3951634 70 87 106
-0.20702961 0.1109657 1.3963678 70 91 118
-0.20646113 0.11108932 1.3979235 54 74 105
-0.2058318 0.11118104 1.3990777 30 48 75
-0 0 0 22 36 59
-0 0 0 25 36 57
-0 0 0 24 33 53
-0 0 0 23 32 53
-0 0 0 21 31 52
-0 0 0 20 29 50
-0 0 0 20 28 50
-0 0 0 21 28 49
-0 0 0 21 29 50
-0 0 0 24 31 54
-0 0 0 25 34 57
-0 0 0 22 32 57
-0 0 0 17 27 52
-0 0 0 12 22 46
-0 0 0 10 21 43
-0 0 0 11 22 43
-0 0 0 12 22 43
-0 0 0 43 47 55
-0.27192193 0.11186031 1.3975723 79 87 96
-0.27132747 0.11194466 1.3986261 99 115 130
-0.27067348 0.11200491 1.3993788 94 120 140
-0.26996064 0.11204106 1.3998305 93 119 144
-0.26918933 0.11205311 1.3999809 101 123 147
-0.26840827 0.11206114 1.4000813 103 125 148
-0.2676079 0.11206114 1.4000813 101 124 146
-0.26679796 0.11205712 1.4000311 100 125 147
-0.26598811 0.11205311 1.3999809 101 127 149
-0.26517829 0.11204909 1.3999308 101 128 152
-0.26435903 0.11204106 1.3998305 102 130 153
-0.26354939 0.11203704 1.3997803 103 129 150
-0.26273975 0.11203302 1.3997301 107 130 150
-0.26193017 0.112029 1.3996798 109 131 151
-0.26111132 0.11202098 1.3995795 109 132 152
-0.26030192 0.11201695 1.3995293 110 134 154
-0.25948325 0.11200893 1.399429 110 132 154
-0.25865543 0.11199688 1.3992784 109 131 153
-0.25783703 0.11198884 1.3991781 109 131 152
-0.25700948 0.11197679 1.3990275 110 133 152
-0.25619134 0.11196876 1.3989271 111 135 155
-0.25536418 0.11195671 1.3987767 109 135 154
-0.25454628 0.11194868 1.3986763 107 134 153
-0.25372851 0.11194064 1.3985758 109 135 155
-0.25291085 0.11193261 1.3984754 111 134 155
-0.25209329 0.11192457 1.3983752 114 135 156
-0.25127587 0.11191654 1.3982748 116 137 157
-0.25045857 0.11190852 1.3981744 116 137 156
-0.24964134 0.11190047 1.398074 116 137 154
-0.24883319 0.11189646 1.3980238 115 136 153
-0.24801619 0.11188843 1.3979235 114 137 154
-0.24720819 0.11188441 1.3978733 117 140 156
-0.24640024 0.11188039 1.3978231 119 141 158
-0.24559234 0.11187638 1.3977729 119 140 158
-0.2447845 0.11187236 1.3977227 119 141 159
-0.24396797 0.11186434 1.3976225 119 142 161
-0.24315152 0.11185629 1.397522 118 142 161
-0.24233522 0.11184826 1.3974216 120 144 163
-0.24151903 0.11184023 1.3973213 123 145 163
-0.2406943 0.11182818 1.3971708 124 145 161
-0.23987837 0.11182015 1.3970704 127 147 161
-0.23905393 0.11180809 1.3969198 131 149 163
-0.23822971 0.11179604 1.3967693 132 148 163
-0.23741418 0.11178802 1.3966689 132 146 162
-0.23660725 0.111784 1.3966187 135 148 166
-0.23579194 0.11177597 1.3965185 137 151 170
-0.23499359 0.11177597 1.3965185 136 152 170
-0.23418684 0.11177195 1.3964683 135 152 167
-0.23338014 0.11176793 1.396418 135 152 168
-0.23257349 0.11176392 1.3963678 138 153 171
-0.23175861 0.11175589 1.3962674 140 151 169
-0.23094381 0.11174785 1.3961672 140 151 169
-0.23012915 0.11173981 1.3960668 138 154 171
-0.2293146 0.11173179 1.3959664 135 152 166
-0.22850013 0.11172375 1.3958659 141 154 167
-0.22768581 0.11171571 1.3957657 145 158 171
-0.22687158 0.11170769 1.3956653 143 157 170
-0.22606561 0.11170366 1.3956151 143 157 169
-0.2252516 0.11169564 1.3955147 145 158 170
-0.2244377 0.11168761 1.3954145 147 158 170
-0.2236239 0.11167957 1.395314 151 159 171
-0.22281022 0.11167153 1.3952136 153 159 169
-0.22199668 0.11166351 1.3951132 152 157 168
-0.22118324 0.11165547 1.395013 153 159 169
-0.22036992 0.11164743 1.3949126 156 161 172
-0.2195567 0.11163941 1.3948122 157 163 174
-0.21874359 0.11163137 1.3947117 158 164 175
-0.21792278 0.11161932 1.3945613 156 163 174
-0.21710993 0.11161129 1.3944609 156 162 173
-0.21629721 0.11160325 1.3943605 157 163 173
-0.21547684 0.11159121 1.39421 158 165 172
-0.21465665 0.11157916 1.3940594 162 167 171
-0.21383663 0.11156711 1.393909 165 164 167
-0.21301678 0.11155506 1.3937584 169 168 171
-0.21220472 0.11154702 1.3936579 171 176 179
-0.21140042 0.11154301 1.3936077 167 173 178
-0.21060376 0.11154301 1.3936077 169 173 179
-0.20982219 0.11155103 1.3937081 163 168 178
-0.20906311 0.11157112 1.3939592 142 153 166
-0.20832622 0.11160325 1.3943605 100 116 133
-0.20764862 0.11166752 1.3951634 73 91 112
-0.20702961 0.11176392 1.3963678 72 92 120
-0.20646113 0.11188843 1.3979235 56 74 105
-0.20583917 0.11198482 1.3991278 30 46 72
-0 0 0 22 35 58
-0 0 0 25 34 57
-0 0 0 23 30 52
-0 0 0 21 28 50
-0 0 0 20 30 51
-0 0 0 19 29 50
-0 0 0 19 27 48
-0 0 0 21 28 48
-0 0 0 22 29 50
-0 0 0 23 30 53
-0 0 0 22 31 55
-0 0 0 21 30 57
-0 0 0 19 29 57
-0 0 0 14 25 52
-0 0 0 13 24 51
-0 0 0 15 26 53
-0 0 0 17 27 54
-0 0 0 43 47 59
-0.27189264 0.11264708 1.3974216 78 84 96
-0.27133718 0.11274821 1.3986763 97 112 128
-0.27069291 0.11281294 1.3994792 94 121 141
-0.26997998 0.11284934 1.3999308 93 120 145
-0.2692183 0.11286552 1.4001315 99 121 147
-0.26842749 0.11286957 1.4001817 101 123 149
-0.26762706 0.11286957 1.4001817 99 123 147
-0.26681706 0.11286552 1.4001315 101 126 148
-0.26600718 0.11286147 1.4000813 98 123 146
-0.26519731 0.11285743 1.4000311 100 126 151
-0.26437798 0.11284934 1.3999308 103 130 154
-0.26356828 0.1128453 1.3998806 102 128 150
-0.26275861 0.11284126 1.3998305 106 130 151
-0.26194897 0.11283721 1.3997803 107 131 151
-0.26113003 0.11282911 1.3996798 106 131 151
-0.26031125 0.11282102 1.3995795 107 133 154
-0.25949255 0.11281294 1.3994792 107 132 154
-0.25867397 0.11280484 1.3993788 105 129 152
-0.2578463 0.11279272 1.3992282 107 130 152
-0.25701872 0.11278057 1.3990777 111 133 154
-0.25620055 0.11277249 1.3989773 112 135 154
