ply
format ascii 1.0
comment PCL generated
element vertex 1072
property float x
property float y
property float z
property uchar red
property uchar green
property uchar blue
element camera 0
property float view_px
property float view_py
property float view_pz
property float x_axisx
property float x_axisy
property float x_axisz
property float y_axisx
property float y_axisy
property float y_axisz
property float z_axisx
property float z_axisy
property float z_axisz
property float focal
property float scalex
property float scaley
property float centerx
property float centery
property int viewportx
property int viewporty
property float k1
property float k2
end_header
0.068135507 0.069071412 1.1961422 204 218 236
0.068816394 0.069068499 1.1960918 204 218 238
0.069497228 0.069065593 1.1960415 206 217 238
0.070177995 0.06906268 1.195991 214 222 243
0.070858717 0.069059774 1.1959409 221 228 250
0.071539372 0.069056876 1.1958905 217 224 246
0.072216943 0.069051057 1.1957898 211 218 240
0.072897449 0.069048151 1.1957394 214 220 242
0.073574804 0.069042325 1.1956387 212 218 240
0.074252054 0.069036514 1.1955379 212 216 232
0.074929178 0.069030702 1.1954373 208 212 222
0.075606205 0.069024898 1.1953367 210 212 223
0.076283097 0.069019072 1.195236 207 212 225
0.076959878 0.06901326 1.1951352 203 212 224
0.077639818 0.069010355 1.1950848 207 216 228
0.078319699 0.069007449 1.1950345 212 222 234
0.078996196 0.06900163 1.1949339 215 221 234
0.079675928 0.068998717 1.1948835 214 216 230
0.080355614 0.068995818 1.1948332 219 223 238
0.081031822 0.06899 1.1947324 222 228 241
0.08170791 0.068984181 1.1946317 215 220 231
0.082387365 0.068981275 1.1945814 216 220 230
0.083063252 0.068975464 1.1944807 224 227 238
0.083739027 0.068969652 1.19438 227 229 238
0.084418245 0.068966739 1.1943296 223 227 235
0.085093819 0.06896092 1.1942289 228 234 241
0.085772894 0.068958014 1.1941786 247 244 251
0.086448275 0.068952203 1.1940778 238 225 229
0.087127201 0.068949305 1.1940275 231 219 219
0.087806076 0.068946391 1.1939771 223 215 215
0.088484891 0.068943478 1.1939269 223 219 219
0.089163654 0.068940572 1.1938765 225 222 221
0.089846142 0.068940572 1.1938765 226 222 219
0.090532452 0.068943478 1.1939269 223 217 216
0.091222674 0.068949305 1.1940275 214 207 209
0.091912985 0.068955109 1.1941282 221 212 203
0.092619047 0.068972558 1.1944304 233 211 189
0.093305796 0.068975464 1.1944807 188 150 133
0 0 0 117 92 84
0 0 0 84 77 70
0 0 0 86 78 72
0 0 0 81 71 69
0 0 0 74 69 72
0.028543059 0.069919594 1.1989617 179 196 216
0.029241957 0.069951899 1.1995156 174 201 223
0.02993395 0.069966577 1.1997674 171 199 223
0.03062238 0.069972448 1.1998681 167 196 220
0.031309608 0.069975384 1.1999184 170 199 223
0.031995554 0.069975384 1.1999184 172 200 226
0.032680128 0.069972448 1.1998681 173 201 229
0.033363242 0.069966577 1.1997674 174 202 231
0.034047667 0.069963634 1.1997169 170 200 231
0.03473204 0.069960698 1.1996666 171 204 236
0.035416357 0.06995777 1.1996163 177 206 239
0.036099099 0.069951899 1.1995156 178 203 234
0.036783267 0.069948949 1.1994652 177 203 233
0.037465803 0.069943085 1.1993645 180 207 237
0.038149834 0.06994015 1.1993142 180 210 239
0.038832173 0.069934271 1.1992135 179 211 239
0.039516054 0.069931336 1.1991631 186 215 242
0.04019988 0.069928408 1.1991128 184 209 244
0.040881928 0.069922529 1.199012 181 209 251
0.041565612 0.069919594 1.1989617 180 210 246
0.042247459 0.06991373 1.1988611 173 200 231
0.042930994 0.06991078 1.1988107 180 203 232
0.043614477 0.069907852 1.1987604 179 204 233
0.044297896 0.069904916 1.19871 176 202 232
0.044981264 0.06990198 1.1986597 177 206 237
0.045664568 0.069899037 1.1986092 184 215 245
0.046345867 0.069893166 1.1985085 192 219 249
0.047029033 0.069890238 1.1984582 182 205 233
0.047710132 0.06988436 1.1983576 188 213 240
0.048391119 0.069878489 1.1982569 185 211 240
0.049071986 0.06987261 1.1981561 189 213 244
0.049752742 0.069866739 1.1980554 194 216 246
0.050433382 0.069860868 1.1979547 200 223 252
0.051116057 0.069857933 1.1979045 191 215 241
0.051796496 0.069852062 1.1978037 190 214 238
0.052479032 0.069849126 1.1977534 191 215 239
0.053161498 0.069846191 1.197703 188 213 238
0.053841647 0.069840319 1.1976023 184 208 234
0.054523978 0.069837376 1.197552 187 210 237
0.055206247 0.069834441 1.1975015 191 212 240
0.055886108 0.06982857 1.1974009 189 211 238
0.056568239 0.069825634 1.1973506 190 212 238
0.057247899 0.069819763 1.1972499 191 213 239
0.057929885 0.069816835 1.1971996 190 211 236
0.058614276 0.069816835 1.1971996 197 217 241
0.05929118 0.069808021 1.1970484 199 217 242
0.059970438 0.06980215 1.1969478 199 214 241
0.060649581 0.069796272 1.1968471 205 217 243
0.06133119 0.069793344 1.1967968 208 220 245
0.062012739 0.069790401 1.1967463 209 223 250
0.062694237 0.069787465 1.196696 207 223 254
0.063375667 0.069784522 1.1966456 207 225 255
0.064057052 0.069781594 1.1965953 209 228 255
0.064735651 0.069775715 1.1964946 203 224 248
0.065416887 0.069772787 1.1964444 201 223 242
0.066095278 0.069766916 1.1963437 206 228 247
0.066773556 0.069761038 1.1962429 207 225 244
0.067451723 0.069755167 1.1961422 211 223 244
0.068132639 0.069752231 1.1960918 212 223 245
0.068813503 0.069749296 1.1960415 209 218 240
0.0694943 0.069746353 1.195991 213 220 243
0.070175052 0.069743425 1.1959409 217 223 246
0.070855737 0.069740489 1.1958905 218 224 247
0.071536362 0.069737546 1.1958401 218 224 246
0.072213896 0.069731675 1.1957394 216 221 242
0.072894387 0.069728747 1.1956891 212 216 239
0.073571719 0.069722869 1.1955884 208 212 236
0.074248925 0.069716997 1.1954876 207 211 228
0.074926026 0.069711126 1.195387 211 213 222
0.075603016 0.069705255 1.1952863 215 215 225
0.076279879 0.069699377 1.1951855 207 212 223
0.076956637 0.069693506 1.1950848 202 210 221
0.077636547 0.069690578 1.1950345 208 217 228
0.078316398 0.069687627 1.1949841 210 219 231
0.078996196 0.069684699 1.1949339 217 222 235
0.079672575 0.069678828 1.1948332 217 218 231
0.080352217 0.069675885 1.1947827 221 226 240
0.081028402 0.069670022 1.1946821 218 227 239
0.081704468 0.069664143 1.1945814 221 229 240
0.082383886 0.069661207 1.194531 222 227 238
0.083059743 0.069655336 1.1944304 222 226 237
0.083735496 0.069649458 1.1943296 228 230 240
0.084414691 0.06964653 1.1942793 223 227 235
0.085090235 0.069640659 1.1941786 227 233 239
0.085769281 0.069637716 1.1941282 238 235 241
0.086448275 0.06963478 1.1940778 231 218 221
0.087123528 0.069628917 1.1939771 230 219 219
0.087802373 0.069625974 1.1939269 225 219 219
0.088481165 0.069623038 1.1938765 226 223 223
0.089163654 0.069623038 1.1938765 226 225 224
0.089846142 0.069623038 1.1938765 222 221 219
0.09052863 0.069623038 1.1938765 216 214 213
0.091218822 0.069628917 1.1939771 216 213 213
0.091912985 0.069637716 1.1941282 218 212 202
0.09261515 0.069652408 1.19438 233 213 190
0.093301855 0.069655336 1.1944304 195 157 139
0 0 0 123 98 88
0 0 0 85 77 69
0 0 0 87 80 73
0 0 0 80 70 67
0 0 0 73 67 70
0.028538262 0.070593111 1.1987604 167 183 204
0.029239502 0.070631653 1.199415 169 194 215
0.029931439 0.07064648 1.1996666 174 201 222
0.030619808 0.070652403 1.1997674 175 203 225
0.031308293 0.070658341 1.1998681 174 202 225
0.031992868 0.070655368 1.1998177 177 205 229
0.032677382 0.070652403 1.1997674 181 208 234
0.033361841 0.070649438 1.1997169 181 206 231
0.03404624 0.07064648 1.1996666 173 203 229
0.034729127 0.070640549 1.1995659 171 205 235
0.035413384 0.070637584 1.1995156 169 199 233
0.036097579 0.070634611 1.1994652 176 202 235
0.036781725 0.070631653 1.199415 174 201 233
0.037464235 0.070625722 1.1993142 182 210 242
0.038148232 0.070622757 1.1992638 186 215 250
0.038830541 0.070616819 1.1991631 180 211 242
0.039514396 0.070613861 1.1991128 190 218 246
0.040196504 0.07060793 1.199012 184 210 245
0.040880214 0.070604973 1.1989617 184 211 253
0.041563865 0.070602 1.1989114 189 218 253
0.042245686 0.070596069 1.1988107 184 211 240
0.042929195 0.070593111 1.1987604 186 211 240
0.043612644 0.070590138 1.19871 186 212 241
0.044296037 0.070587181 1.1986597 185 212 241
0.044979371 0.070584208 1.1986092 184 213 242
0.045660727 0.070578277 1.1985085 184 214 242
0.046343923 0.070575319 1.1984582 189 215 243
0.047025081 0.070569389 1.1983576 189 210 237
0.047706123 0.07056345 1.1982569 192 216 243
0.048387051 0.070557527 1.1981561 192 220 248
0.049069926 0.070554562 1.1981058 194 219 249
0.049750656 0.070548631 1.1980051 197 218 248
0.050431266 0.070542701 1.1979045 201 224 254
0.051113907 0.070539735 1.197854 188 213 239
0.051794324 0.070533812 1.1977534 186 211 234
0.052476823 0.070530839 1.197703 198 222 243
0.053159267 0.070527881 1.1976527 193 216 237
0.053839386 0.070521951 1.197552 191 212 238
0.054521684 0.070518985 1.1975015 189 209 242
0.055201601 0.070513047 1.1974009 186 205 238
0.055883761 0.070510089 1.1973506 189 208 243
0.056565858 0.070507117 1.1973002 190 209 241
0.057245497 0.070501201 1.1971996 187 209 237
0.057927445 0.070498228 1.1971492 192 216 242
0.05861181 0.070498228 1.1971492 195 218 243
0.059286192 0.070486367 1.1969478 197 218 244
0.05996792 0.070483409 1.1968975 200 220 246
0.060647033 0.070477471 1.1967968 202 220 246
0.061328609 0.070474505 1.1967463 203 221 246
0.062010136 0.07047154 1.196696 207 224 252
0.062688962 0.070465617 1.1965953 206 224 255
0.06337034 0.070462652 1.196545 204 222 251
0.064051658 0.070459679 1.1964946 208 227 253
0.064732924 0.070456721 1.1964444 209 229 251
0.065411374 0.07045079 1.1963437 205 224 244
0.066092491 0.070447825 1.1962932 205 223 245
0.066770747 0.070441887 1.1961925 210 226 250
0.067448877 0.070435956 1.1960918 209 221 246
0.06812977 0.070432998 1.1960415 209 219 245
0.068810597 0.070430033 1.195991 209 217 243
0.069491379 0.070427068 1.1959409 209 216 241
0.070172094 0.070424102 1.1958905 214 220 245
0.070852749 0.070421137 1.1958401 213 220 246
0.071530342 0.070415206 1.1957394 216 224 247
0.072210856 0.070412248 1.1956891 215 222 243
0.07289131 0.070409276 1.1956387 214 219 242
0.073568612 0.070403345 1.1955379 207 212 237
0.074245796 0.070397414 1.1954373 212 217 234
0.074922875 0.070391491 1.1953367 207 212 220
0.075599834 0.07038556 1.195236 208 211 219
0.076276675 0.07037963 1.1951352 210 216 226
0.076956637 0.070376664 1.1950848 210 217 227
0.077633269 0.070370726 1.1949841 208 216 226
0.078313105 0.070367768 1.1949339 212 219 231
0.078992859 0.070364803 1.1948835 217 223 235
0.079672575 0.070361838 1.1948332 220 223 236
0.080348842 0.070355915 1.1947324 219 222 236
0.081028402 0.070352942 1.1946821 219 225 237
0.081704468 0.070347019 1.1945814 225 230 241
0.082380414 0.070341088 1.1944807 227 232 243
0.083056249 0.07033515 1.19438 223 227 238
0.083731972 0.070329227 1.1942793 223 227 235
0.084411122 0.070326254 1.1942289 229 233 240
0.085090235 0.070323296 1.1941786 235 240 246
0.08576566 0.070317358 1.1940778 234 231 237
0.086444624 0.0703144 1.1940275 226 214 218
0.087123528 0.070311435 1.1939771 227 218 219
0.087802373 0.070308469 1.1939269 228 223 223
0.088481165 0.070305504 1.1938765 230 229 228
0.089163654 0.070305504 1.1938765 229 230 229
0.089846142 0.070305504 1.1938765 222 225 223
0.09052863 0.070305504 1.1938765 220 223 221
0.091218822 0.070311435 1.1939771 227 227 225
0.091912985 0.070320331 1.1941282 225 220 208
0.09261515 0.07033515 1.19438 231 212 188
0.093301855 0.070338123 1.1944304 194 159 140
0 0 0 123 99 89
0 0 0 89 82 73
0 0 0 88 81 73
0 0 0 78 70 67
0 0 0 73 69 71
0.028534664 0.071269378 1.1986092 158 173 194
0.029237047 0.071311295 1.1993142 166 188 210
0.029930184 0.071329258 1.1996163 169 194 217
0.030618522 0.071335241 1.1997169 171 198 220
0.031306978 0.071341231 1.1998177 171 198 219
0.031991526 0.071338244 1.1997674 166 193 215
0.032676011 0.071335241 1.1997169 172 197 220
0.03336044 0.071332254 1.1996666 179 202 226
0.034043383 0.071326263 1.1995659 170 198 223
0.03472767 0.071323276 1.1995156 173 207 234
0.035411894 0.071320273 1.1994652 171 201 231
0.03609607 0.071317285 1.199415 180 207 237
0.036778636 0.071311295 1.1993142 181 208 239
0.037462663 0.0713083 1.1992638 179 207 239
0.03814663 0.071305305 1.1992135 180 209 242
0.038828909 0.071299314 1.1991128 183 212 244
0.039512739 0.071296327 1.1990625 188 216 247
0.040194817 0.071290344 1.1989617 185 211 247
0.040878493 0.071287349 1.1989114 186 213 253
0.041562121 0.071284354 1.1988611 187 214 251
0.042243913 0.071278363 1.1987604 184 212 245
0.042927388 0.071275368 1.19871 182 210 242
0.043610815 0.071272381 1.1986597 185 213 244
0.044294175 0.071269378 1.1986092 186 214 245
0.044977482 0.07126639 1.1985589 186 214 245
0.045658812 0.0712604 1.1984582 187 215 246
0.046341982 0.071257405 1.198408 194 219 250
0.04702311 0.071251422 1.1983073 193 212 242
0.047704119 0.071245439 1.1982065 194 218 246
0.04838502 0.071239449 1.1981058 190 219 249
0.049065802 0.071233459 1.1980051 198 223 254
0.049746472 0.071227469 1.1979045 196 217 248
0.050429143 0.071224473 1.197854 198 221 252
0.051109616 0.071218491 1.1977534 193 218 246
0.051792141 0.071215495 1.197703 196 221 247
0.052474618 0.0712125 1.1976527 195 219 244
0.053157028 0.071209505 1.1976023 193 214 238
0.053837121 0.071203515 1.1975015 190 208 234
0.054519393 0.07120052 1.1974514 189 206 236
0.055199284 0.071194544 1.1973506 194 211 241
0.055881407 0.071191542 1.1973002 199 216 246
0.056563482 0.071188554 1.1972499 198 214 242
0.057243083 0.071182564 1.1971492 189 211 237
0.057925012 0.071179576 1.1970989 186 215 239
0.058609344 0.071179576 1.1970989 190 217 239
0.059286192 0.071170583 1.1969478 198 222 245
0.059965394 0.071164593 1.1968471 197 221 245
0.060644478 0.07115861 1.1967463 195 218 242
0.061326031 0.071155615 1.196696 200 223 248
0.062007524 0.07115262 1.1966456 203 224 250
0.062688962 0.071149632 1.1965953 203 222 250
0.06337034 0.071146645 1.196545 205 222 248
0.064048968 0.071140654 1.1964444 207 225 250
0.064730197 0.071137659 1.196394 211 229 251
0.065408625 0.071131669 1.1962932 208 224 245
0.066089712 0.071128674 1.1962429 205 219 241
0.066767938 0.071122691 1.1961422 215 227 251
0.067446046 0.071116701 1.1960415 210 221 245
0.068126902 0.071113698 1.195991 215 224 249
0.068807699 0.071110711 1.1959409 218 225 249
0.069488458 0.071107723 1.1958905 214 221 242
0.070169136 0.07110472 1.1958401 214 220 241
0.070849769 0.071101733 1.1957898 212 220 241
0.071527332 0.07109575 1.1956891 210 219 238
0.072207808 0.071092747 1.1956387 213 221 239
0.072888248 0.071089759 1.1955884 213 219 238
0.073565513 0.071083769 1.1954876 211 217 238
0.074242674 0.071077779 1.195387 214 219 235
0.074922875 0.071074791 1.1953367 212 218 229
0.075599834 0.071068801 1.195236 208 216 226
0.076276675 0.071062811 1.1951352 211 218 228
0.076953389 0.07105682 1.1950345 211 216 227
0.077633269 0.071053825 1.1949841 211 216 228
0.078309797 0.071047843 1.1948835 216 221 233
0.078989543 0.071044855 1.1948332 222 227 239
0.079669215 0.071041852 1.1947827 224 228 239
0.080348842 0.071038865 1.1947324 225 228 239
0.081024989 0.071032874 1.1946317 231 233 244
0.081701018 0.071026884 1.194531 228 230 242
0.082380414 0.071023896 1.1944807 226 229 241
0.083056249 0.071017906 1.19438 228 231 244
0.083731972 0.071011916 1.1942793 224 227 238
0.084411122 0.071008921 1.1942289 230 232 241
0.085086636 0.071002938 1.1941282 239 240 247
0.08576566 0.07099995 1.1940778 241 237 243
0.086444624 0.070996955 1.1940275 230 220 224
0.087123528 0.07099396 1.1939771 228 221 223
0.087802373 0.070990965 1.1939269 226 224 225
0.088481165 0.07098797 1.1938765 225 225 226
0.089163654 0.07098797 1.1938765 228 230 232
0.089846142 0.07098797 1.1938765 229 234 237
0.09052863 0.07098797 1.1938765 226 233 234
0.091218822 0.07099396 1.1939771 233 235 233
0.091909118 0.07099995 1.1940778 231 225 215
0.092611238 0.071014911 1.1943296 233 215 194
0.093297929 0.071017906 1.19438 195 163 146
0 0 0 123 101 91
0 0 0 90 81 73
0 0 0 86 80 72
0 0 0 81 75 71
0 0 0 73 71 72
0.028531071 0.071945488 1.1984582 152 167 189
0.02923459 0.071990825 1.1992135 165 187 211
0.029927671 0.07200896 1.1995156 163 187 213
0.030615956 0.07201501 1.1996163 169 196 218
0.031305667 0.07202407 1.1997674 170 198 217
0.031990182 0.072021045 1.1997169 172 201 221
0.03267464 0.072018027 1.1996666 175 202 224
0.033359043 0.07201501 1.1996163 174 199 222
0.034043383 0.072011977 1.1995659 170 200 225
0.03472621 0.072005935 1.1994652 175 210 235
0.035410412 0.072002918 1.199415 183 215 241
0.03609455 0.071999885 1.1993645 185 214 242
0.03677709 0.071993843 1.1992638 181 211 242
0.037461091 0.071990825 1.1992135 182 213 244
0.038145028 0.0719878 1.1991631 186 217 248
0.038827281 0.071981758 1.1990625 188 219 251
0.039511077 0.071978733 1.199012 184 213 248
0.040193126 0.071972683 1.1989114 184 211 248
0.04087678 0.071969666 1.1988611 185 213 252
0.04156037 0.071966641 1.1988107 186 215 253
0.042243913 0.071963623 1.1987604 186 216 253
0.042927388 0.071960591 1.19871 187 217 253
0.043608978 0.071954548 1.1986092 189 220 254
0.044292316 0.071951531 1.1985589 189 221 253
0.04497559 0.071948498 1.1985085 187 217 250
0.045656897 0.071942464 1.198408 189 218 252
0.04634003 0.071939439 1.1983576 194 219 255
0.047021128 0.071933396 1.1982569 192 213 247
0.047702115 0.071927346 1.1981561 192 214 246
0.048382983 0.071921304 1.1980554 196 220 252
0.049063738 0.071915254 1.1979547 194 218 250
0.049744383 0.071909212 1.197854 193 216 248
0.050427023 0.071906187 1.1978037 198 222 254
0.051107462 0.071900144 1.197703 196 223 254
0.051789965 0.071897127 1.1976527 200 225 254
0.052472409 0.071894094 1.1976023 201 225 253
0.053154796 0.071891084 1.197552 199 220 248
0.053834863 0.071885034 1.1974514 198 217 245
0.054517098 0.07188201 1.1974009 199 218 245
0.055199284 0.071878992 1.1973506 201 220 247
0.055879064 0.07187295 1.1972499 199 219 244
0.056561105 0.071869925 1.1971996 195 215 240
0.05724068 0.071863875 1.1970989 191 214 238
0.057922572 0.071860857 1.1970484 193 219 241
0.058606878 0.071860857 1.1970484 201 226 245
0.0592837 0.07185179 1.1968975 205 229 249
0.059962872 0.07184574 1.1967968 202 225 246
0.06064193 0.071839698 1.196696 199 222 245
0.061323449 0.071836673 1.1966456 201 222 247
0.062004916 0.071833648 1.1965953 206 226 251
0.062686324 0.071830638 1.196545 210 227 253
0.063367672 0.071827605 1.1964946 210 226 251
0.064048968 0.071824588 1.1964444 208 223 248
0.064727478 0.071818545 1.1963437 211 226 249
0.065408625 0.071815513 1.1962932 209 223 244
0.066086933 0.071809471 1.1961925 205 218 240
0.066765122 0.071803421 1.1960918 217 229 252
0.067446046 0.071800403 1.1960415 216 227 251
0.068124034 0.071794361 1.1959409 219 229 252
0.068804808 0.071791336 1.1958905 222 230 250
0.06948553 0.071788318 1.1958401 222 230 248
0.070166185 0.071785294 1.1957898 223 232 249
0.070846789 0.071782261 1.1957394 220 229 246
0.071527332 0.071779244 1.1956891 217 226 243
0.072207808 0.071776219 1.1956387 218 226 243
0.072885171 0.071770169 1.1955379 221 228 244
0.073565513 0.071767159 1.1954876 221 227 244
0.074242674 0.071761109 1.195387 219 224 239
0.074919716 0.071755067 1.1952863 217 222 236
0.075596638 0.071749017 1.1951855 217 222 234
0.076276675 0.071745999 1.1951352 217 223 234
0.076953389 0.071739949 1.1950345 218 222 234
0.077630006 0.071733907 1.1949339 213 218 231
0.078309797 0.071730882 1.1948835 216 221 234
0.078989543 0.071727857 1.1948332 227 233 244
0.079669215 0.07172484 1.1947827 226 233 242
0.080345459 0.071718797 1.1946821 219 225 233
0.081024989 0.071715772 1.1946317 225 230 240
0.081701018 0.071709722 1.194531 228 232 246
0.082380414 0.071706705 1.1944807 222 227 241
0.083056249 0.071700662 1.19438 223 227 241
0.083731972 0.07169462 1.1942793 229 231 245
0.084407568 0.07168857 1.1941786 233 233 246
0.085086636 0.071685538 1.1941282 232 231 241
0.085762054 0.071679503 1.1940275 240 236 243
0.08644098 0.071676478 1.1939771 240 231 236
0.087119855 0.07167346 1.1939269 233 225 229
0.08779867 0.071670435 1.1938765 232 227 230
0.088481165 0.071670435 1.1938765 231 228 231
0.089163654 0.071670435 1.1938765 228 227 232
0.089846142 0.071670435 1.1938765 234 234 240
0.090532452 0.07167346 1.1939269 230 231 234
0.091218822 0.071676478 1.1939771 233 231 229
0.091912985 0.071685538 1.1941282 234 227 218
0.092611238 0.07169763 1.1943296 229 211 195
0.093293995 0.07169763 1.1943296 196 168 155
0 0 0 120 100 92
0 0 0 89 80 73
0 0 0 84 78 71
0 0 0 84 80 76
0 0 0 74 72 72
0.028527476 0.072621413 1.1983073 156 170 196
0.029233363 0.072673284 1.1991631 168 191 217
0.029927671 0.072694652 1.1995156 165 191 218
0.030615956 0.072700754 1.1996163 163 190 216
0.031304352 0.072706848 1.1997169 163 192 217
0.031990182 0.072706848 1.1997169 165 194 220
0.03267464 0.072703794 1.1996666 172 201 228
0.033357639 0.072697699 1.1995659 174 201 228
0.034041956 0.072694652 1.1995156 172 203 230
0.03472621 0.072691597 1.1994652 175 210 238
0.035408925 0.072685495 1.1993645 177 211 241
0.036093038 0.07268244 1.1993142 183 215 245
0.03677709 0.072679393 1.1992638 184 217 248
0.037459515 0.072673284 1.1991631 185 219 250
0.03814343 0.072670236 1.1991128 191 224 254
0.03882565 0.072664134 1.199012 192 224 255
0.039509419 0.072661087 1.1989617 185 215 248
0.040191442 0.072654985 1.1988611 183 211 245
0.040875062 0.072651923 1.1988107 186 215 250
0.041558627 0.072648883 1.1987604 187 217 251
0.042242136 0.072645821 1.19871 188 220 254
0.042925585 0.072642773 1.1986597 191 225 255
0.043608978 0.072639719 1.1986092 192 227 255
0.044292316 0.072636671 1.1985589 186 220 253
0.044973705 0.072630569 1.1984582 185 217 251
0.045654975 0.072624467 1.1983576 184 214 247
0.046338085 0.072621413 1.1983073 193 219 252
0.047019158 0.072615311 1.1982065 200 222 253
0.047700111 0.072609216 1.1981058 199 219 247
0.048380956 0.072603114 1.1980051 201 220 247
0.049061678 0.072597004 1.1979045 197 219 246
0.049742289 0.072590902 1.1978037 196 221 249
0.050424907 0.072587855 1.1977534 199 225 255
0.05110532 0.072581746 1.1976527 194 221 251
0.05178779 0.072578698 1.1976023 195 221 252
0.052470203 0.072575644 1.197552 200 223 254
0.053152557 0.072572596 1.1975015 199 221 252
0.053834863 0.072569542 1.1974514 198 218 248
0.05451481 0.07256344 1.1973506 197 218 248
0.05519696 0.072560385 1.1973002 201 222 250
0.055879064 0.072557338 1.1972499 201 224 250
0.056558724 0.072551228 1.1971492 197 221 246
0.05724068 0.072548188 1.1970989 197 220 244
0.057920139 0.072542086 1.1969981 196 218 241
0.058604416 0.072542086 1.1969981 196 219 241
0.059281204 0.072532922 1.1968471 201 224 247
0.059962872 0.072529875 1.1967968 206 228 253
0.06064193 0.072523773 1.196696 206 227 252
0.061323449 0.072520718 1.1966456 207 226 251
0.062004916 0.072517671 1.1965953 211 228 252
0.062686324 0.072514623 1.196545 212 227 250
0.063367672 0.072511569 1.1964946 211 225 248
0.064046264 0.072505459 1.196394 212 226 249
0.064727478 0.072502419 1.1963437 213 224 246
0.065408625 0.072499357 1.1962932 211 223 243
0.066086933 0.072493255 1.1961925 213 225 246
0.066765122 0.072487153 1.1960918 219 231 253
0.067443199 0.072481051 1.195991 221 232 253
0.068124034 0.072478004 1.1959409 219 229 251
0.06880191 0.072471902 1.1958401 219 227 247
0.069482602 0.072468847 1.1957898 217 227 244
0.070163228 0.0724658 1.1957394 218 228 245
0.070843801 0.072462745 1.1956891 223 234 251
0.071524315 0.07245969 1.1956387 223 233 250
0.072204776 0.072456643 1.1955884 220 229 247
0.072885171 0.072453588 1.1955379 222 229 246
0.073565513 0.072450541 1.1954876 224 231 247
0.074242674 0.072444431 1.195387 221 226 242
0.074919716 0.072438329 1.1952863 219 223 240
0.075596638 0.072432227 1.1951855 221 224 240
0.076276675 0.072429188 1.1951352 223 225 241
0.076953389 0.072423078 1.1950345 223 225 240
0.077630006 0.072416976 1.1949339 218 222 236
0.078309797 0.072413929 1.1948835 219 225 239
0.078989543 0.072410874 1.1948332 227 235 248
0.079665862 0.072404772 1.1947324 226 235 248
0.080345459 0.072401725 1.1946821 222 231 243
0.081024989 0.07239867 1.1946317 223 231 244
0.081701018 0.072392561 1.194531 229 236 249
0.082380414 0.072389521 1.1944807 228 234 247
0.083056249 0.072383419 1.19438 226 229 241
0.083731972 0.072377309 1.1942793 226 225 236
0.084411122 0.072374254 1.1942289 227 226 236
0.085086636 0.072368152 1.1941282 230 227 235
0.085762054 0.07236205 1.1940275 237 232 237
0.08644098 0.072359003 1.1939771 241 233 237
0.087119855 0.072355948 1.1939269 234 225 229
0.08779867 0.072352901 1.1938765 232 224 227
0.088481165 0.072352901 1.1938765 235 228 231
0.089163654 0.072352901 1.1938765 231 226 230
0.089846142 0.072352901 1.1938765 230 225 230
0.090532452 0.072355948 1.1939269 232 227 230
0.091218822 0.072359003 1.1939771 238 231 230
0.091909118 0.072365105 1.1940778 237 228 222
0.092607334 0.072377309 1.1942793 230 213 202
0.093293995 0.072380356 1.1943296 197 172 163
0 0 0 121 102 97
0 0 0 94 84 78
0 0 0 86 80 73
0 0 0 84 80 76
0 0 0 74 73 73
0.028526276 0.073303327 1.1982569 147 162 192
0.029233363 0.073358774 1.1991631 164 190 219
0.029926412 0.073377252 1.1994652 166 195 224
0.030614669 0.073383413 1.1995659 164 195 224
0.031303041 0.073389575 1.1996666 160 191 223
0.031988841 0.073389575 1.1996666 161 193 225
0.03267464 0.073389575 1.1996666 170 201 232
0.033357639 0.073383413 1.1995659 177 206 237
0.034041956 0.073380344 1.1995156 175 206 236
0.034724753 0.073374175 1.199415 178 211 242
0.035408925 0.073371097 1.1993645 178 210 244
0.036093038 0.07336802 1.1993142 184 215 248
0.03677709 0.073364928 1.1992638 191 222 254
0.037459515 0.073358774 1.1991631 194 225 255
0.038141828 0.073352613 1.1990625 194 224 255
0.03882565 0.073349535 1.199012 193 222 253
0.039507758 0.073343374 1.1989114 195 222 255
0.040191442 0.073340297 1.1988611 199 224 254
0.040873349 0.073334135 1.1987604 196 223 255
0.04155688 0.073331058 1.19871 195 224 254
0.042240363 0.073327973 1.1986597 194 225 255
0.042923782 0.073324889 1.1986092 192 226 255
0.043607146 0.073321812 1.1985589 188 223 255
0.044290449 0.073318727 1.1985085 184 219 253
0.044971816 0.073312573 1.198408 187 220 255
0.04565306 0.073306412 1.1983073 189 220 253
0.046336137 0.073303327 1.1982569 195 224 255
0.047017179 0.073297173 1.1981561 202 228 255
0.047698107 0.073291011 1.1980554 207 230 255
0.048378918 0.07328485 1.1979547 213 233 255
0.049059615 0.073278688 1.197854 210 231 254
0.049740199 0.073272534 1.1977534 207 230 255
0.050422788 0.073269449 1.197703 202 226 254
0.051103167 0.073263288 1.1976023 198 223 253
0.051785614 0.073260218 1.197552 199 223 255
0.052467994 0.073257126 1.1975015 202 224 255
0.053150326 0.073254049 1.1974514 199 220 255
0.053832591 0.073250972 1.1974009 196 216 250
0.05451481 0.073247895 1.1973506 198 219 252
0.05519696 0.073244803 1.1973002 202 223 253
0.055876713 0.073238656 1.1971996 201 223 251
0.056558724 0.073235571 1.1971492 201 224 250
0.05723827 0.07322941 1.1970484 203 226 251
0.057920139 0.073226333 1.1969981 208 230 254
0.058601946 0.073223248 1.1969478 208 229 254
0.059281204 0.073217086 1.1968471 208 228 254
0.059962872 0.073214009 1.1967968 207 226 255
0.06064193 0.073207848 1.196696 207 225 252
0.061323449 0.073204763 1.1966456 213 229 254
0.062004916 0.073201694 1.1965953 219 234 255
0.062686324 0.073198617 1.196545 218 233 255
0.063365012 0.073192455 1.1964444 217 232 253
0.064046264 0.07318937 1.196394 217 231 253
0.064727478 0.073186286 1.1963437 217 230 250
0.065408625 0.073183201 1.1962932 212 225 245
0.066086933 0.073177047 1.1961925 216 229 249
0.066765122 0.073170885 1.1960918 221 233 254
0.067443199 0.073164724 1.195991 220 233 253
0.068121172 0.07315857 1.1958905 223 235 254
0.06880191 0.073155485 1.1958401 228 238 254
0.069479674 0.073149323 1.1957394 229 238 254
0.070160277 0.073146246 1.1956891 230 237 254
0.070840813 0.073143169 1.1956387 229 236 255
0.071524315 0.073143169 1.1956387 229 234 253
0.072204776 0.073140092 1.1955884 229 234 254
0.072885171 0.073137 1.1955379 226 231 249
0.073565513 0.073133923 1.1954876 224 229 246
0.074242674 0.073127769 1.195387 230 233 251
0.074919716 0.073121607 1.1952863 232 234 253
0.075599834 0.07311853 1.195236 230 231 250
0.076276675 0.073112369 1.1951352 232 233 253
0.076953389 0.073106207 1.1950345 235 236 254
0.077630006 0.073100045 1.1949339 235 237 253
0.078309797 0.073096961 1.1948835 235 239 254
0.078986205 0.073090807 1.1947827 234 239 254
0.079665862 0.073087722 1.1947324 233 239 254
0.080345459 0.073084645 1.1946821 231 237 254
0.081024989 0.073081568 1.1946317 228 232 248
0.081704468 0.073078491 1.1945814 230 234 246
0.082380414 0.073072329 1.1944807 235 240 249
0.083059743 0.073069245 1.1944304 236 238 246
0.083735496 0.073063083 1.1943296 234 234 241
0.084411122 0.073056921 1.1942289 233 230 237
0.085086636 0.07305076 1.1941282 236 231 237
0.085762054 0.073044606 1.1940275 239 234 239
0.08644098 0.073041521 1.1939771 241 235 238
0.087119855 0.073038444 1.1939269 240 234 236
0.08779867 0.073035359 1.1938765 237 232 234
0.088481165 0.073035359 1.1938765 231 226 229
0.089159898 0.07303229 1.1938262 232 228 232
0.089846142 0.073035359 1.1938765 237 232 237
0.090532452 0.073038444 1.1939269 239 233 236
0.091222674 0.073044606 1.1940275 244 237 238
0.091912985 0.07305076 1.1941282 239 232 230
0.092607334 0.073060006 1.1942793 236 219 215
0.093293995 0.073063083 1.1943296 210 183 179
0 0 0 126 106 104
0 0 0 94 85 81
0 0 0 87 81 76
0 0 0 85 82 77
0 0 0 74 73 72
0.028525079 0.073985189 1.1982065 130 145 177
0.029232135 0.074041151 1.1991128 158 186 218
0.029925158 0.074059807 1.199415 168 199 232
0.030613385 0.074066028 1.1995156 171 205 236
0.031303041 0.074075349 1.1996666 171 205 235
0.031988841 0.074075349 1.1996666 172 205 235
0.03267327 0.074072242 1.1996163 175 207 238
0.033357639 0.074069127 1.1995659 175 207 237
0.034040522 0.074062914 1.1994652 176 207 237
0.034724753 0.074059807 1.199415 179 209 239
0.035408925 0.074056692 1.1993645 183 213 243
0.036093038 0.074053586 1.1993142 187 216 242
0.03677709 0.074050479 1.1992638 195 223 246
0.037459515 0.074044257 1.1991631 202 230 252
0.038141828 0.074038051 1.1990625 200 226 248
0.038824022 0.07403183 1.1989617 195 220 244
0.0395061 0.074025609 1.1988611 198 222 247
0.04018975 0.074022502 1.1988107 200 222 248
0.040871628 0.07401628 1.19871 196 221 248
0.041555136 0.074013174 1.1986597 200 227 254
0.042240363 0.074013174 1.1986597 200 230 255
0.042923782 0.074010067 1.1986092 192 225 251
0.043607146 0.07400696 1.1985589 190 224 250
0.044288594 0.074000739 1.1984582 191 225 253
0.044969924 0.073994525 1.1983576 194 228 255
0.045651138 0.073988296 1.1982569 193 226 253
0.04633224 0.073982075 1.1981561 198 230 255
0.047013227 0.073975861 1.1980554 208 238 255
0.047694094 0.07396964 1.1979547 217 243 255
0.04837485 0.073963426 1.197854 218 240 255
0.049057554 0.073960319 1.1978037 207 227 245
0.049738109 0.073954098 1.197703 205 224 245
0.050420668 0.073950998 1.1976527 208 228 253
0.051101021 0.073944777 1.197552 207 229 255
0.051783431 0.073941663 1.1975015 210 231 255
0.052465793 0.073938563 1.1974514 211 231 255
0.053148087 0.073935449 1.1974009 208 228 255
0.053830333 0.073932342 1.1973506 206 226 253
0.054512512 0.073929228 1.1973002 204 224 250
0.055194642 0.073926121 1.1972499 200 220 245
0.055876713 0.073923022 1.1971996 202 223 245
0.056558724 0.073919907 1.1971492 205 227 249
0.05723827 0.073913686 1.1970484 209 231 253
0.057920139 0.073910587 1.1969981 207 228 249
0.058601946 0.073907472 1.1969478 211 230 249
0.059281204 0.073901251 1.1968471 216 233 252
0.059962872 0.073898144 1.1967968 216 233 251
0.060644478 0.073895037 1.1967463 214 228 247
0.061323449 0.073888816 1.1966456 214 228 247
0.062004916 0.073885709 1.1965953 219 232 248
0.062683687 0.073879488 1.1964946 222 236 251
0.063365012 0.073876381 1.1964444 222 237 250
0.064046264 0.073873267 1.196394 222 237 248
0.064727478 0.07387016 1.1963437 222 236 246
0.065408625 0.073867053 1.1962932 223 237 248
0.066086933 0.073860832 1.1961925 226 240 251
0.066765122 0.073854618 1.1960918 228 242 253
0.067443199 0.073848397 1.195991 229 243 254
0.068121172 0.073842183 1.1958905 230 243 253
0.068799019 0.073835969 1.1957898 231 243 252
0.069479674 0.073832855 1.1957394 242 251 255
0.070157319 0.073826641 1.1956387 249 253 255
0.070840813 0.073826641 1.1956387 251 252 255
0.071521312 0.073823534 1.1955884 251 251 255
0.072204776 0.073823534 1.1955884 241 242 253
0.072885171 0.07382042 1.1955379 235 237 247
0.073565513 0.073817313 1.1954876 247 249 253
0.074242674 0.073811099 1.195387 252 253 255
0.074922875 0.073807992 1.1953367 253 253 255
0.075599834 0.073801771 1.195236 253 253 255
0.076276675 0.073795557 1.1951352 253 253 255
0.076953389 0.073789336 1.1950345 253 253 255
0.077630006 0.073783122 1.1949339 253 253 255
0.078306504 0.073776901 1.1948332 253 254 255
0.078986205 0.073773786 1.1947827 253 254 255
0.079665862 0.073770672 1.1947324 253 254 255
0.080345459 0.073767573 1.1946821 253 253 255
0.081024989 0.073764458 1.1946317 243 243 250
0.081704468 0.073761351 1.1945814 231 232 239
0.082383886 0.073758237 1.194531 228 229 234
0.083059743 0.073752023 1.1944304 240 240 244
0.083735496 0.073745802 1.1943296 242 241 245
0.084411122 0.073739588 1.1942289 238 235 238
0.085086636 0.073733367 1.1941282 242 235 239
0.085762054 0.073727161 1.1940275 243 237 240
0.08644098 0.073724046 1.1939771 243 239 241
0.087116182 0.073717825 1.1938765 245 243 244
0.08779867 0.073717825 1.1938765 243 241 242
0.088477433 0.073714718 1.1938262 242 240 241
0.089159898 0.073714718 1.1938262 246 243 245
0.089842357 0.073714718 1.1938262 251 247 250
0.09052863 0.073717825 1.1938765 252 247 248
0.091218822 0.073724046 1.1939771 247 242 242
0.091912985 0.073733367 1.1941282 246 241 240
0.092607334 0.073742695 1.1942793 250 233 231
0.093317591 0.073764458 1.1946317 215 184 183
0.094004482 0.073767573 1.1946821 130 108 108
0 0 0 92 83 81
0 0 0 90 85 79
0 0 0 89 85 80
0 0 0 75 73 70
0.028528674 0.074679546 1.1983576 125 141 176
0.029232135 0.074726611 1.1991128 161 191 227
0.029925158 0.074745439 1.199415 167 199 236
0.030613385 0.07475172 1.1995156 172 205 237
0.031303041 0.074761122 1.1996666 167 201 230
0.031988841 0.074761122 1.1996666 171 205 233
0.03267327 0.074757986 1.1996163 172 206 235
0.033356242 0.07475172 1.1995156 174 208 237
0.034040522 0.074748576 1.1994652 176 210 240
0.034724753 0.074745439 1.199415 183 216 244
0.035408925 0.074742295 1.1993645 198 226 252
0.036093038 0.074739166 1.1993142 209 232 252
0.03677709 0.074736021 1.1992638 220 239 254
0.037459515 0.074729741 1.1991631 230 245 255
0.038141828 0.074723482 1.1990625 228 242 255
0.038824022 0.074717201 1.1989617 225 239 254
0.039504439 0.074707784 1.1988107 223 236 254
0.040188063 0.074704655 1.1987604 222 233 254
0.04086991 0.074698374 1.1986597 215 231 255
0.041555136 0.074698374 1.1986597 210 231 254
0.042238586 0.07469523 1.1986092 206 231 255
0.042921983 0.0746921 1.1985589 202 231 253
0.043605316 0.074688956 1.1985085 204 234 255
0.044288594 0.074685819 1.1984582 208 239 255
0.044969924 0.074679546 1.1983576 204 234 255
0.045649223 0.074670136 1.1982065 199 229 250
0.046330296 0.074663855 1.1981058 204 233 255
0.047011252 0.074657582 1.1980051 210 237 251
0.047692094 0.074651308 1.1979045 228 248 255
0.04837485 0.074648164 1.197854 237 249 255
0.049055494 0.074641898 1.1977534 228 241 254
0.049736019 0.074635617 1.1976527 220 233 251
0.050418545 0.074632473 1.1976023 219 233 255
0.051098868 0.074626207 1.1975015 218 233 255
0.051781259 0.074623071 1.1974514 217 233 255
0.05246358 0.074619927 1.1974009 217 234 255
0.053145856 0.07461679 1.1973506 216 233 255
0.053828064 0.074613646 1.1973002 215 232 253
0.054512512 0.074613646 1.1973002 221 234 255
0.055194642 0.074610516 1.1972499 227 238 254
0.055876713 0.074607387 1.1971996 226 238 254
0.056556348 0.074601106 1.1970989 227 238 255
0.05723827 0.074597962 1.1970484 225 237 255
0.057920139 0.074594833 1.1969981 223 235 250
0.058604416 0.074594833 1.1969981 230 241 254
0.0592837 0.074588552 1.1968975 238 248 255
0.059965394 0.074585408 1.1968471 238 246 255
0.060644478 0.074579142 1.1967463 236 244 254
0.061326031 0.074576005 1.196696 234 242 254
0.062004916 0.074569725 1.1965953 234 241 251
0.062686324 0.074566588 1.196545 239 246 254
0.063365012 0.074560314 1.1964444 244 253 255
0.064046264 0.074557178 1.196394 245 253 254
0.064727478 0.074554041 1.1963437 245 253 254
0.065408625 0.074550897 1.1962932 246 253 254
0.066086933 0.074544623 1.1961925 246 254 255
0.066765122 0.074538343 1.1960918 246 254 255
0.067443199 0.074532077 1.195991 246 254 255
0.068121172 0.074525803 1.1958905 246 254 255
0.068799019 0.074519522 1.1957898 247 254 255
0.069476753 0.074513249 1.1956891 250 255 255
0.070157319 0.074510112 1.1956387 253 255 255
0.07083784 0.074506976 1.1955884 254 255 255
0.071521312 0.074506976 1.1955884 255 255 255
0.072201729 0.074503832 1.1955379 253 254 255
0.072885171 0.074503832 1.1955379 252 253 254
0.073565513 0.074500702 1.1954876 254 255 255
0.074242674 0.074494421 1.195387 255 255 255
0.074922875 0.074491285 1.1953367 255 255 255
0.075599834 0.074485019 1.195236 255 255 255
0.076276675 0.074478738 1.1951352 255 255 255
0.076953389 0.074472457 1.1950345 255 255 255
0.077630006 0.074466184 1.1949339 255 255 255
0.078306504 0.07445991 1.1948332 255 255 255
0.078986205 0.074456766 1.1947827 255 255 255
0.079665862 0.074453637 1.1947324 255 255 255
0.080345459 0.0744505 1.1946821 255 255 255
0.081024989 0.074447356 1.1946317 254 254 255
0.081704468 0.074444219 1.1945814 252 253 253
0.082383886 0.074441075 1.194531 251 252 253
0.083059743 0.074434809 1.1944304 253 254 254
0.083739027 0.074431673 1.19438 254 254 254
0.084411122 0.074422255 1.1942289 253 253 253
0.085086636 0.074415974 1.1941282 254 253 253
0.085762054 0.074409708 1.1940275 254 253 254
0.08644098 0.074406572 1.1939771 254 253 253
0.087116182 0.074400291 1.1938765 254 254 254
0.08779867 0.074400291 1.1938765 254 253 254
0.088477433 0.074397154 1.1938262 254 253 254
0.089159898 0.074397154 1.1938262 254 254 254
0.089842357 0.074397154 1.1938262 255 254 255
0.09052863 0.074400291 1.1938765 255 254 254
0.091218822 0.074406572 1.1939771 254 253 253
0.091912985 0.074415974 1.1941282 254 253 253
0.092607334 0.074425392 1.1942793 255 252 252
0.093317591 0.074447356 1.1946317 221 196 197
0.094008438 0.074453637 1.1947324 138 117 118
0 0 0 103 93 92
0 0 0 95 89 85
0 0 0 91 86 81
0 0 0 77 74 69
0.028528674 0.075364567 1.1983576 117 135 168
0.029232135 0.075412072 1.1991128 165 198 234
0.029925158 0.075431071 1.199415 169 202 240
0.030613385 0.075437404 1.1995156 179 211 242
0.031301726 0.07544373 1.1996163 181 214 236
0.031987499 0.07544373 1.1996163 178 212 231
0.032671899 0.075440571 1.1995659 178 213 230
0.033356242 0.075437404 1.1995156 183 219 236
0.034040522 0.075434238 1.1994652 187 223 239
0.034724753 0.075431071 1.199415 184 219 234
0.035408925 0.075427905 1.1993645 217 242 254
0.036093038 0.075424738 1.1993142 238 253 255
0.03677709 0.075421564 1.1992638 246 254 255
0.037461091 0.075418405 1.1992135 253 254 255
0.03814343 0.075412072 1.1991128 253 254 255
0.038824022 0.075402573 1.1989617 253 254 255
0.039504439 0.075393066 1.1988107 253 254 255
0.040186375 0.075386733 1.19871 253 254 255
0.04086991 0.075383574 1.1986597 245 254 255
0.041553389 0.0753804 1.1986092 234 249 255
0.042236812 0.075377233 1.1985589 226 246 255
0.042921983 0.075377233 1.1985589 217 242 253
0.043605316 0.075374067 1.1985085 224 250 255
0.044286735 0.075367741 1.198408 227 254 255
0.044968035 0.075361416 1.1983073 219 247 255
0.045647305 0.075351909 1.1981561 214 241 251
0.046326403 0.075342409 1.1980051 219 243 255
0.047009274 0.075339243 1.1979547 219 242 249
0.047690086 0.075332902 1.197854 242 254 255
0.04837079 0.075326577 1.1977534 253 255 255
0.049053427 0.07532341 1.197703 243 246 253
0.049731839 0.075313911 1.197552 236 243 252
0.050414305 0.075310737 1.1975015 246 253 255
0.051096726 0.075307578 1.1974514 247 254 255
0.051776901 0.075301245 1.1973506 243 254 255
0.052459173 0.075298071 1.1973002 240 253 255
0.05314362 0.075298071 1.1973002 240 254 255
0.053825807 0.075294904 1.1972499 236 248 255
0.054510225 0.075294904 1.1972499 247 253 255
0.055192325 0.075291745 1.1971996 253 254 255
0.055874363 0.075288571 1.1971492 253 254 255
0.056556348 0.075285412 1.1970989 253 254 255
0.05724068 0.075285412 1.1970989 253 254 255
0.057922572 0.075282238 1.1970484 253 254 255
0.058606878 0.075282238 1.1970484 254 254 255
0.0592837 0.075272746 1.1968975 254 254 255
0.059965394 0.07526958 1.1968471 254 254 255
0.060647033 0.075266413 1.1967968 253 254 255
0.061326031 0.07526008 1.196696 253 254 255
0.062004916 0.075253747 1.1965953 253 254 255
0.062683687 0.075247414 1.1964946 254 254 255
0.063362338 0.075241081 1.196394 254 255 255
0.064043574 0.075237915 1.1963437 254 255 255
0.064724743 0.075234748 1.1962932 254 255 255
0.065405868 0.075231582 1.1962429 254 255 255
0.066084154 0.075225249 1.1961422 254 255 255
0.066762313 0.075218916 1.1960415 254 255 255
0.067440361 0.075212583 1.1959409 254 255 255
0.068118304 0.075206243 1.1958401 254 255 255
0.068796121 0.07519991 1.1957394 254 255 255
0.069473825 0.075193584 1.1956387 255 255 255
0.070154369 0.075190425 1.1955884 255 255 255
0.07083784 0.075190425 1.1955884 255 255 255
0.071518287 0.075187251 1.1955379 255 255 255
0.072201729 0.075187251 1.1955379 255 255 255
0.072885171 0.075187251 1.1955379 255 255 255
0.073565513 0.075184084 1.1954876 255 255 255
0.074245796 0.075180918 1.1954373 255 255 255
0.074922875 0.075174592 1.1953367 255 255 255
0.075596638 0.075165085 1.1951855 255 255 255
0.076273456 0.075158753 1.1950848 255 255 255
0.076950148 0.07515242 1.1949841 255 255 255
0.077630006 0.075149253 1.1949339 255 255 255
0.078306504 0.07514292 1.1948332 255 255 255
0.078986205 0.075139746 1.1947827 255 255 255
0.079665862 0.075136587 1.1947324 255 255 255
0.080345459 0.075133421 1.1946821 255 255 255
0.081024989 0.075130254 1.1946317 255 255 255
0.081704468 0.075127088 1.1945814 255 255 255
0.082383886 0.075123921 1.194531 255 255 255
0.083063252 0.075120755 1.1944807 255 255 255
0.083739027 0.075114429 1.19438 255 255 255
0.084414691 0.075108096 1.1942793 255 255 255
0.085086636 0.075098589 1.1941282 255 255 255
0.085762054 0.075092264 1.1940275 255 255 255
0.08644098 0.07508909 1.1939771 255 255 255
0.087116182 0.075082757 1.1938765 255 255 255
0.08779867 0.075082757 1.1938765 255 255 255
0.088477433 0.075079598 1.1938262 255 255 255
0.089159898 0.075079598 1.1938262 255 255 255
0.089842357 0.075079598 1.1938262 255 255 255
0.09052863 0.075082757 1.1938765 255 255 255
0.091218822 0.07508909 1.1939771 255 255 255
0.091909118 0.075095423 1.1940778 255 255 255
0.092607334 0.075108096 1.1942793 255 255 255
0.093321525 0.075133421 1.1946821 251 232 231
0.094008438 0.075136587 1.1947324 149 131 130
0 0 0 114 102 99
0 0 0 100 92 87
0 0 0 89 82 77
0 0 0 81 76 68
0.028528674 0.076049596 1.1983576 101 120 153
0.029232135 0.076097526 1.1991128 170 205 241
0.029923901 0.0761135 1.1993645 178 214 254
0.030612098 0.076119885 1.1994652 199 234 254
0.031301726 0.076129489 1.1996163 205 238 254
0.031987499 0.076129489 1.1996163 211 242 253
0.032671899 0.076126285 1.1995659 219 247 253
0.033356242 0.076123096 1.1995156 230 253 254
0.034040522 0.076119885 1.1994652 232 253 254
0.034724753 0.076116696 1.199415 234 253 254
0.035408925 0.0761135 1.1993645 240 254 255
0.03609455 0.0761135 1.1993645 247 255 255
0.036778636 0.076110303 1.1993142 251 255 255
0.037462663 0.076107107 1.1992638 255 255 255
0.038141828 0.076094337 1.1990625 255 255 255
0.03882565 0.076091133 1.199012 255 255 255
0.039504439 0.076078355 1.1988107 255 255 255
0.040186375 0.076071963 1.19871 255 255 255
0.040868193 0.076065578 1.1986092 251 255 255
0.041551646 0.076062381 1.1985589 247 255 255
0.042235039 0.076059178 1.1985085 244 255 255
0.042920176 0.076059178 1.1985085 241 254 255
0.043603484 0.076055989 1.1984582 241 255 255
0.044284873 0.076049596 1.1983576 240 255 255
0.044966146 0.076043203 1.1982569 240 255 255
0.045645386 0.076033622 1.1981058 240 254 255
0.046324451 0.076024033 1.1979547 241 254 255
0.047005322 0.076017641 1.197854 242 254 255
0.047688082 0.076014452 1.1978037 248 255 255
0.048368752 0.076008059 1.197703 255 255 255
0.04905137 0.07600487 1.1976527 253 254 255
0.049729742 0.075995274 1.1975015 251 254 255
0.050412189 0.075992085 1.1974514 252 255 255
0.051092427 0.075985692 1.1973506 252 255 255
0.05177255 0.0759793 1.1972499 250 255 255
0.052456968 0.0759793 1.1972499 248 255 255
0.053139154 0.075976111 1.1971996 248 255 255
0.053823542 0.075976111 1.1971996 248 255 255
0.054505639 0.075972915 1.1971492 252 255 255
0.055189997 0.075972915 1.1971492 255 255 255
0.055874363 0.075972915 1.1971492 255 255 255
0.056553967 0.075966522 1.1970484 255 255 255
0.05723827 0.075966522 1.1970484 255 255 255
0.057922572 0.075966522 1.1970484 255 255 255
0.058606878 0.075966522 1.1970484 255 255 255
0.0592837 0.075956941 1.1968975 255 255 255
0.059965394 0.075953744 1.1968471 255 255 255
0.06064193 0.075944155 1.196696 255 255 255
0.061326031 0.075944155 1.196696 255 255 255
0.062004916 0.07593777 1.1965953 255 255 255
0.062683687 0.07593137 1.1964946 255 255 255
0.063362338 0.075924978 1.196394 255 255 255
0.064040877 0.075918593 1.1962932 255 255 255
0.064722031 0.075915396 1.1962429 255 255 255
0.065400369 0.075909011 1.1961422 255 255 255
0.066081367 0.075905807 1.1960918 255 255 255
0.066759497 0.075899422 1.195991 255 255 255
0.067443199 0.075899422 1.195991 255 255 255
0.068118304 0.075889841 1.1958401 255 255 255
0.068796121 0.075883448 1.1957394 255 255 255
0.069473825 0.075877056 1.1956387 255 255 255
0.070154369 0.075873867 1.1955884 255 255 255
0.07083784 0.075873867 1.1955884 255 255 255
0.071518287 0.075870663 1.1955379 255 255 255
0.072201729 0.075870663 1.1955379 255 255 255
0.072885171 0.075870663 1.1955379 255 255 255
0.073562413 0.07586427 1.1954373 255 255 255
0.074242674 0.075861074 1.195387 255 255 255
0.074919716 0.075854689 1.1952863 255 255 255
0.075596638 0.075848296 1.1951855 255 255 255
0.076273456 0.075841904 1.1950848 255 255 255
0.076950148 0.075835519 1.1949841 255 255 255
0.077626735 0.075829126 1.1948835 255 255 255
0.078306504 0.075825937 1.1948332 255 255 255
0.078982882 0.075819544 1.1947324 255 255 255
0.079662509 0.075816356 1.1946821 255 255 255
0.080345459 0.075816356 1.1946821 255 255 255
0.081024989 0.075813152 1.1946317 255 255 255
0.081704468 0.075809963 1.1945814 255 255 255
0.082383886 0.075806759 1.194531 255 255 255
0.083063252 0.075803563 1.1944807 255 255 255
0.083739027 0.075797178 1.19438 255 255 255
0.084414691 0.075790785 1.1942793 255 255 255
0.085086636 0.075781196 1.1941282 255 255 255
0.085762054 0.075774811 1.1940275 255 255 255
0.08644098 0.075771615 1.1939771 255 255 255
0.087119855 0.075768419 1.1939269 255 255 255
0.08779867 0.075765222 1.1938765 255 255 255
0.088477433 0.075762033 1.1938262 255 255 255
0.089159898 0.075762033 1.1938262 255 255 255
0.089842357 0.075762033 1.1938262 255 255 255
0.09052863 0.075765222 1.1938765 255 255 255
0.091218822 0.075771615 1.1939771 255 255 255
0.091909118 0.075778008 1.1940778 255 255 255
0.092607334 0.075790785 1.1942793 255 255 255
0.093321525 0.075816356 1.1946821 255 253 251
0.094012387 0.075822733 1.1947827 152 141 138
0 0 0 115 102 99
0 0 0 103 92 88
0 0 0 92 83 77
0 0 0 84 77 68
0 0 0 89 110 143
0.029232135 0.076782979 1.1991128 173 211 246
0.029923901 0.076799102 1.1993645 181 220 255
0.030612098 0.076805547 1.1994652 200 238 255
0.031300411 0.076811999 1.1995659 200 234 252
0.031986155 0.076811999 1.1995659 207 235 247
0.032671899 0.076811999 1.1995659 235 254 255
0.033356242 0.07680878 1.1995156 246 255 255
0.034039095 0.076802328 1.199415 250 255 255
0.034724753 0.076802328 1.199415 254 255 255
0.035408925 0.076799102 1.1993645 254 255 255
0.03609455 0.076799102 1.1993645 255 255 255
0.036778636 0.076795883 1.1993142 255 255 255
0.037461091 0.076789439 1.1992135 255 255 255
0.03814343 0.076782979 1.1991128 255 255 255
0.038827281 0.07677976 1.1990625 255 255 255
0.039504439 0.076763645 1.1988107 255 255 255
0.040184688 0.076753967 1.1986597 255 255 255
0.040866479 0.076747522 1.1985589 255 255 255
