ply
format ascii 1.0
comment PCL generated
element vertex 1192
property float x
property float y
property float z
property uchar red
property uchar green
property uchar blue
element camera 0
property float view_px
property float view_py
property float view_pz
property float x_axisx
property float x_axisy
property float x_axisz
property float y_axisx
property float y_axisy
property float y_axisz
property float z_axisx
property float z_axisy
property float z_axisz
property float focal
property float scalex
property float scaley
property float centerx
property float centery
property int viewportx
property int viewporty
property float k1
property float k2
end_header
-0.20237224 0.047937877 1.3972799 58 98 134
-0 0 0 22 42 81
-0 0 0 22 28 55
-0 0 0 22 27 45
-0 0 0 19 24 42
-0 0 0 18 24 42
-0 0 0 20 25 41
-0 0 0 21 26 41
-0 0 0 19 24 41
-0 0 0 21 26 46
-0 0 0 22 27 47
-0 0 0 22 28 48
-0 0 0 19 26 47
-0 0 0 18 25 46
-0 0 0 17 23 44
-0 0 0 17 23 43
-0 0 0 16 22 41
-0 0 0 16 23 42
-0 0 0 13 20 37
-0 0 0 16 22 38
-0.19525494 0.050216008 1.4636823 24 29 50
-0.19442482 0.050217714 1.4637319 30 35 60
-0.19358806 0.050217714 1.4637319 31 35 64
-0.26766175 0.0486985 1.3961873 96 82 85
-0.26702499 0.048727956 1.3970317 87 79 73
-0.2664251 0.048764333 1.3980746 94 96 88
-0.26576746 0.048790317 1.3988196 115 128 127
-0.26503366 0.048802443 1.3991672 125 144 155
-0.26427129 0.048809372 1.3993659 127 148 165
-0.26349941 0.048814572 1.3995149 126 149 168
-0.26269937 0.048814572 1.3995149 125 148 169
-0.26189932 0.048814572 1.3995149 126 150 172
-0.26109001 0.048812836 1.3994652 130 154 176
-0.26027152 0.048809372 1.3993659 130 153 175
-0.25945315 0.048805907 1.3992666 130 152 175
-0.25864404 0.048804175 1.3992169 132 154 179
-0.25782588 0.048800711 1.3991176 126 149 174
-0.25700781 0.048797246 1.3990182 118 142 163
-0.25618076 0.048792049 1.3988693 115 140 159
-0.25536296 0.048788585 1.3987699 115 140 160
-0.25454524 0.048785117 1.3986706 115 141 161
-0.25372767 0.048781659 1.3985713 118 143 165
-0.2529192 0.048779923 1.3985217 118 143 165
-0.25211075 0.048778191 1.398472 116 140 160
-0.25130236 0.048776459 1.3984222 117 139 159
-0.25049406 0.048774727 1.3983725 119 141 161
-0.24968579 0.048772991 1.3983228 120 142 163
-0.24887758 0.048771258 1.3982732 118 140 161
-0.24806947 0.04876953 1.3982236 115 137 158
-0.24725257 0.048766065 1.3981242 117 140 160
-0.24643581 0.048762601 1.3980249 117 142 160
-0.24561916 0.048759133 1.3979255 114 139 156
-0.24480262 0.048755672 1.3978263 115 140 157
-0.24399489 0.04875394 1.3977766 117 142 158
-0.24317855 0.048750471 1.3976773 116 142 159
-0.24237093 0.048748743 1.3976276 116 141 160
-0.24155481 0.048745278 1.3975283 115 141 160
-0.24074735 0.048743546 1.3974786 115 141 161
-0.23993139 0.048740081 1.3973793 118 142 162
-0.23912407 0.048738346 1.3973296 121 144 162
-0.23830834 0.048734881 1.3972303 122 142 160
-0.23750116 0.048733152 1.3971807 121 140 158
-0.23668562 0.048729688 1.3970813 120 140 160
-0.23587857 0.048727956 1.3970317 116 139 163
-0.23506323 0.048724487 1.3969322 114 141 165
-0.23425633 0.048722755 1.3968825 117 144 165
-0.2334412 0.048719291 1.3967834 118 143 163
-0.23263444 0.048717558 1.3967336 121 144 167
-0.2318195 0.048714098 1.3966342 120 144 168
-0.23100466 0.048710629 1.3965349 117 141 165
-0.23019814 0.048708901 1.3964853 120 142 164
-0.22938351 0.048705433 1.396386 123 143 164
-0.22857712 0.0487037 1.3963363 124 143 164
-0.22777078 0.048701968 1.3962866 123 143 164
-0.2269645 0.048700236 1.3962369 121 141 163
-0.22615829 0.0486985 1.3961873 121 142 164
-0.22535214 0.048696775 1.3961377 120 142 163
-0.22454603 0.048695043 1.396088 124 147 168
-0.22373202 0.048691574 1.3959887 126 151 173
-0.22292607 0.048689842 1.395939 122 148 172
-0.22211225 0.048686378 1.3958396 119 142 168
-0.22129858 0.048682913 1.3957404 120 141 167
-0.22048499 0.048679452 1.395641 117 141 166
-0.21967934 0.048677716 1.3955913 119 145 166
-0.21886595 0.048674252 1.395492 120 144 163
-0.21805269 0.048670787 1.3953927 122 146 164
-0.21724726 0.048669055 1.3953431 123 147 165
-0.2164342 0.048665587 1.3952436 121 146 164
-0.21562123 0.048662126 1.3951443 117 144 163
-0.21480075 0.048656929 1.3949953 117 144 165
-0.21399567 0.048655197 1.3949456 119 144 166
-0.21318306 0.048651729 1.3948463 122 145 166
-0.21238568 0.048651729 1.3948463 128 148 168
-0.21158077 0.048649997 1.3947966 132 152 170
-0.21077593 0.048648268 1.394747 135 158 175
-0.20997113 0.048646539 1.3946974 136 161 180
-0.20916638 0.048644803 1.3946477 134 159 179
-0.2083617 0.048643071 1.394598 133 158 180
-0.20755707 0.048641339 1.3945483 133 160 183
-0.20675986 0.048641339 1.3945483 135 162 184
-0.20597732 0.048644803 1.3946477 138 162 183
-0.20520929 0.048651729 1.3948463 135 159 179
-0.20446286 0.048663858 1.3951939 132 159 179
-0.20374504 0.048682913 1.3957404 120 151 173
-0.20308435 0.048715826 1.3966839 94 132 158
-0.20239383 0.048741814 1.397429 55 94 127
-0 0 0 21 39 76
-0 0 0 22 26 53
-0 0 0 21 27 45
-0 0 0 19 25 44
-0 0 0 20 26 45
-0 0 0 19 25 41
-0 0 0 21 26 42
-0 0 0 20 24 42
-0 0 0 23 28 48
-0 0 0 24 30 50
-0 0 0 22 29 50
-0 0 0 19 26 48
-0 0 0 17 24 47
-0 0 0 17 24 45
-0 0 0 16 23 44
-0 0 0 17 23 42
-0 0 0 15 23 41
-0 0 0 12 20 37
-0 0 0 12 19 36
-0.19525494 0.051052704 1.4636823 24 29 49
-0.19441821 0.051052704 1.4636823 30 35 60
-0.19358148 0.051052704 1.4636823 30 35 63
-0.26766175 0.049496617 1.3961873 98 82 86
-0.26702499 0.04952655 1.3970317 89 77 72
-0.2664251 0.049563527 1.3980746 100 99 91
-0.26576746 0.049589936 1.3988196 117 130 129
-0.26503366 0.049602259 1.3991672 125 144 157
-0.26427129 0.049609303 1.3993659 129 148 167
-0.26349941 0.049614586 1.3995149 128 149 169
-0.26270869 0.049616348 1.3995646 125 148 169
-0.26189932 0.049614586 1.3995149 126 150 172
-0.26109001 0.049612824 1.3994652 128 153 176
-0.26027152 0.049609303 1.3993659 127 152 175
-0.25946233 0.049607541 1.3993162 126 149 174
-0.25864404 0.049604025 1.3992169 127 150 177
-0.25782588 0.049600497 1.3991176 124 146 171
-0.25700781 0.049596976 1.3990182 118 142 161
-0.25619894 0.049595214 1.3989685 114 140 158
-0.25536296 0.049588174 1.3987699 113 141 158
-0.25454524 0.049584653 1.3986706 115 145 164
-0.25372767 0.049581137 1.3985713 117 146 168
-0.2529192 0.049579371 1.3985217 114 141 163
-0.25211075 0.049577609 1.398472 112 137 157
-0.25130236 0.049575847 1.3984222 116 139 158
-0.25050294 0.049575847 1.3984222 118 140 159
-0.24969466 0.049574088 1.3983725 118 140 160
-0.24888644 0.049572326 1.3983228 119 142 162
-0.24806947 0.04956881 1.3982236 119 142 162
-0.24726135 0.049567048 1.3981739 118 142 161
-0.24644457 0.049563527 1.3980746 117 141 159
-0.24562788 0.049560003 1.3979752 113 138 156
-0.24481134 0.049556483 1.397876 112 137 156
-0.24399489 0.049552958 1.3977766 113 139 158
-0.24318717 0.0495512 1.3977269 116 142 162
-0.24237093 0.049547676 1.3976276 116 142 164
-0.24156336 0.049545918 1.3975779 116 143 166
-0.24074735 0.049542397 1.3974786 120 146 169
-0.23993993 0.049540635 1.397429 122 147 169
-0.23912407 0.049537115 1.3973296 122 144 164
-0.2383168 0.049535349 1.3972799 122 141 160
-0.23750116 0.049531832 1.3971807 123 142 160
-0.23669404 0.04953007 1.397131 123 142 161
-0.23587857 0.04952655 1.3970317 116 139 162
-0.23506323 0.049523026 1.3969322 113 140 163
-0.23425633 0.049521267 1.3968825 115 143 163
-0.2334412 0.049517747 1.3967834 119 143 162
-0.23262616 0.049514227 1.3966839 119 142 164
-0.2318195 0.049512461 1.3966342 118 144 168
-0.23100466 0.04950894 1.3965349 119 146 168
-0.23019814 0.049507182 1.3964853 119 142 163
-0.22939168 0.049505424 1.3964356 116 137 158
-0.22857712 0.0495019 1.3963363 117 136 157
-0.22777078 0.049500138 1.3962866 120 139 160
-0.22697258 0.049500138 1.3962866 120 140 161
-0.22616634 0.049498379 1.3962369 119 140 161
-0.22536016 0.049496617 1.3961873 120 141 163
-0.22454603 0.0494931 1.396088 124 146 168
-0.22373202 0.049489573 1.3959887 125 151 174
-0.22292607 0.049487814 1.395939 123 150 175
-0.22211225 0.04948429 1.3958396 125 147 174
-0.22129858 0.049480774 1.3957404 122 143 171
-0.22048499 0.049477249 1.395641 118 142 168
-0.2196715 0.049473729 1.3955417 116 141 163
-0.21886595 0.049471967 1.395492 119 143 163
-0.21805269 0.04946845 1.3953927 119 141 161
-0.21723953 0.049464922 1.3952934 117 140 159
-0.21642648 0.049461402 1.3951939 120 142 162
-0.21561357 0.049457885 1.3950948 121 145 166
-0.21480075 0.049454361 1.3949953 120 144 166
-0.21399567 0.049452603 1.3949456 121 144 167
-0.21318306 0.049449079 1.3948463 123 146 167
-0.21238568 0.049449079 1.3948463 128 149 168
-0.21158077 0.049447317 1.3947966 132 153 170
-0.21077593 0.049445562 1.394747 133 158 176
-0.20997113 0.049443796 1.3946974 135 161 181
-0.20916638 0.049442034 1.3946477 135 160 181
-0.20835428 0.049438514 1.3945483 131 156 179
-0.20755707 0.049438514 1.3945483 132 159 184
-0.20675986 0.049438514 1.3945483 137 164 187
-0.20597732 0.049442034 1.3946477 141 166 189
-0.2052166 0.049450841 1.394896 138 162 184
-0.20446286 0.049461402 1.3951939 134 160 181
-0.20375229 0.049482532 1.39579 123 151 175
-0.20309158 0.049515989 1.3967336 98 133 159
-0.20240822 0.049544159 1.3975283 56 92 124
-0 0 0 23 39 73
-0 0 0 25 28 53
-0 0 0 22 27 45
-0 0 0 20 26 45
-0 0 0 20 26 46
-0 0 0 19 24 41
-0 0 0 20 25 41
-0 0 0 20 24 41
-0 0 0 22 27 46
-0 0 0 24 30 50
-0 0 0 21 27 48
-0 0 0 17 24 47
-0 0 0 18 25 47
-0 0 0 17 24 46
-0 0 0 16 23 43
-0 0 0 16 22 41
-0 0 0 15 24 41
-0 0 0 10 19 36
-0 0 0 13 19 36
-0.19524832 0.051887639 1.4636326 24 28 50
-0.19441162 0.051887639 1.4636326 33 37 63
-0.19358148 0.051889401 1.4636823 29 34 63
-0.2676903 0.050300099 1.3963363 94 77 83
-0.26704398 0.050328724 1.397131 87 74 71
-0.26643461 0.050364505 1.3981242 104 102 95
-0.26576746 0.050389554 1.3988196 118 131 132
-0.26503366 0.050402075 1.3991672 122 142 157
-0.26427129 0.050409231 1.3993659 124 145 166
-0.26349941 0.050414599 1.3995149 125 147 168
-0.26270869 0.050416388 1.3995646 125 148 169
-0.26189932 0.050414599 1.3995149 127 152 173
-0.26109001 0.050412811 1.3994652 127 152 175
-0.26028073 0.050411023 1.3994155 125 151 178
-0.25946233 0.050407439 1.3993162 125 150 178
-0.25865322 0.050405655 1.3992666 127 150 177
-0.25783503 0.050402075 1.3991672 122 145 169
-0.25701693 0.050398499 1.3990679 116 138 158
-0.25619894 0.050394915 1.3989685 114 139 155
-0.25537202 0.050389554 1.3988196 116 142 157
-0.2545543 0.050385974 1.3987203 116 142 160
-0.25373667 0.050382394 1.3986208 116 142 163
-0.2529192 0.050378818 1.3985217 114 139 161
-0.25211075 0.05037703 1.398472 115 138 158
-0.2513113 0.05037703 1.398472 119 141 159
-0.25050294 0.050375242 1.3984222 121 143 161
-0.24969466 0.05037345 1.3983725 122 144 163
-0.24888644 0.050371662 1.3983228 123 146 166
-0.24807824 0.050369874 1.3982732 120 145 164
-0.24726135 0.050366294 1.3981739 117 143 161
-0.24644457 0.050362717 1.3980746 117 142 161
-0.24562788 0.050359137 1.3979752 114 140 161
-0.24482003 0.050357349 1.3979255 116 140 163
-0.24400355 0.050353773 1.3978263 117 141 165
-0.24319583 0.050351981 1.3977766 116 139 164
-0.24237955 0.050348405 1.3976773 113 137 165
-0.24156336 0.050344825 1.3975779 113 138 165
-0.2407559 0.05034304 1.3975283 118 142 167
-0.23993993 0.050339457 1.397429 122 144 168
-0.23913257 0.050337669 1.3973793 121 143 164
-0.2383168 0.050334092 1.3972799 121 140 160
-0.23750958 0.0503323 1.3972303 123 142 159
-0.23669404 0.050328724 1.397131 122 143 160
-0.23588696 0.050326936 1.3970813 118 141 162
-0.2350716 0.050323356 1.396982 117 143 165
-0.23425633 0.05031978 1.3968825 118 145 164
-0.2334412 0.0503162 1.3967834 119 143 162
-0.23262616 0.050312623 1.3966839 118 141 163
-0.2318195 0.050310832 1.3966342 118 145 168
-0.23100466 0.050307255 1.3965349 120 148 169
-0.23019814 0.050305471 1.3964853 118 144 165
-0.22939168 0.050303675 1.3964356 116 141 163
-0.22858526 0.050301887 1.396386 117 141 164
-0.22777888 0.050300099 1.3963363 119 143 165
-0.22697258 0.050298311 1.3962866 120 143 164
-0.22616634 0.050296519 1.3962369 121 142 164
-0.22536016 0.050294731 1.3961873 121 142 164
-0.22454603 0.050291155 1.396088 123 144 167
-0.22374 0.050289363 1.3960383 124 149 174
-0.22292607 0.050285786 1.395939 126 151 177
-0.22211225 0.050282206 1.3958396 127 151 178
-0.22129858 0.05027863 1.3957404 120 142 171
-0.22048499 0.05027505 1.395641 118 143 171
-0.2196715 0.050271474 1.3955417 121 146 171
-0.21886595 0.050269686 1.395492 123 147 169
-0.21805269 0.050266106 1.3953927 119 143 164
-0.21723953 0.050262526 1.3952934 115 139 160
-0.21642648 0.050258949 1.3951939 120 144 166
-0.21561357 0.050255373 1.3950948 123 147 170
-0.21480075 0.050251793 1.3949953 123 146 170
-0.21399567 0.050250005 1.3949456 124 146 170
-0.21319064 0.050248213 1.394896 127 150 171
-0.21238568 0.050246425 1.3948463 134 156 175
-0.21158077 0.050244637 1.3947966 139 162 181
-0.21077593 0.050242852 1.394747 141 167 185
-0.20997113 0.050241057 1.3946974 140 167 188
-0.20916638 0.050239269 1.3946477 138 162 186
-0.20835428 0.050235692 1.3945483 136 159 184
-0.20754966 0.050233901 1.3944987 136 159 186
-0.20675986 0.050235692 1.3945483 137 161 186
-0.20597732 0.050239269 1.3946477 139 163 187
-0.20520929 0.050246425 1.3948463 138 163 187
-0.20447014 0.050260738 1.3952436 133 159 183
-0.20375952 0.050282206 1.3958396 123 152 177
-0.2030988 0.0503162 1.3967834 98 134 162
-0.2024298 0.050348405 1.3976773 51 88 119
-0 0 0 21 38 70
-0 0 0 25 29 52
-0 0 0 21 26 43
-0 0 0 20 26 45
-0 0 0 21 27 47
-0 0 0 20 25 43
-0 0 0 20 25 43
-0 0 0 21 25 43
-0 0 0 21 26 44
-0 0 0 24 29 48
-0 0 0 21 27 49
-0 0 0 18 25 48
-0 0 0 19 26 49
-0 0 0 17 24 46
-0 0 0 16 23 43
-0 0 0 16 22 41
-0 0 0 17 24 42
-0 0 0 14 21 38
-0 0 0 15 21 39
-0.19524832 0.052724309 1.4636326 24 29 52
-0.19441162 0.052724309 1.4636326 33 38 66
-0.19357492 0.052724309 1.4636326 31 35 66
-0.26771891 0.051103752 1.3964853 92 74 81
-0.26705346 0.051129196 1.3971807 89 75 73
-0.26644406 0.051165547 1.3981739 108 105 100
-0.26577687 0.051190991 1.3988693 120 133 135
-0.26504305 0.051203713 1.3992169 122 143 160
-0.26428071 0.051210981 1.3994155 124 147 169
-0.26349941 0.051214613 1.3995149 125 149 171
-0.26270869 0.051216435 1.3995646 124 148 169
-0.26189932 0.051214613 1.3995149 127 150 170
-0.26109001 0.051212799 1.3994652 128 153 173
-0.26028073 0.051210981 1.3994155 127 152 175
-0.25947157 0.051209163 1.3993659 126 150 175
-0.25865322 0.051205531 1.3992666 129 152 178
-0.25784418 0.051203713 1.3992169 123 145 169
-0.25702608 0.051200077 1.3991176 116 138 157
-0.25619894 0.051194623 1.3989685 116 138 155
-0.25538108 0.051190991 1.3988693 120 143 158
-0.25456333 0.051187355 1.3987699 123 145 163
-0.25373667 0.051181901 1.3986208 119 141 163
-0.25292817 0.051180083 1.3985713 116 139 161
-0.25211972 0.051178269 1.3985217 120 142 161
-0.2513113 0.051176447 1.398472 122 145 162
-0.25051185 0.051176447 1.398472 119 141 160
-0.24970354 0.051174633 1.3984222 120 141 161
-0.24888644 0.051170994 1.3983228 122 145 166
-0.24807824 0.051169179 1.3982732 121 148 168
-0.24726135 0.051165547 1.3981739 121 150 168
-0.24645333 0.051163726 1.3981242 121 149 167
-0.24563661 0.05116009 1.3980249 118 144 165
-0.24482003 0.051156458 1.3979255 117 140 164
-0.24401222 0.05115464 1.397876 117 138 162
-0.24319583 0.051151004 1.3977766 116 137 161
-0.24238817 0.051149186 1.3977269 116 137 161
-0.24157196 0.05114555 1.3976276 118 139 162
-0.24076444 0.051143736 1.3975779 118 140 163
-0.23994845 0.051140103 1.3974786 118 139 162
-0.23913257 0.051136464 1.3973793 120 139 161
-0.23832527 0.051134646 1.3973296 123 142 163
-0.23750958 0.051131006 1.3972303 124 143 162
-0.23670246 0.051129196 1.3971807 122 143 161
-0.23588696 0.05112556 1.3970813 120 144 164
-0.23507996 0.051123742 1.3970317 119 145 165
-0.23426466 0.051120106 1.3969322 119 144 163
-0.2334495 0.051116474 1.3968331 120 143 162
-0.23263444 0.051112838 1.3967336 121 143 164
-0.2318195 0.051109202 1.3966342 119 145 167
-0.23101288 0.051107384 1.3965846 116 144 164
-0.23019814 0.051103752 1.3964853 117 145 165
-0.22939168 0.051101934 1.3964356 119 148 167
-0.22859338 0.051101934 1.3964356 117 147 167
-0.227787 0.051100116 1.396386 117 146 166
-0.22698067 0.051098298 1.3963363 119 145 165
-0.2261744 0.051096477 1.3962866 119 142 162
-0.22536016 0.051092841 1.3961873 123 144 165
-0.22455403 0.05109103 1.3961377 124 145 167
-0.22374 0.051087394 1.3960383 122 145 168
-0.22292607 0.051083755 1.395939 125 148 173
-0.22211225 0.051080119 1.3958396 124 147 174
-0.22129858 0.051076487 1.3957404 120 144 171
-0.22048499 0.051072855 1.395641 123 148 174
-0.2196715 0.051069219 1.3955417 124 149 172
-0.21885817 0.051065587 1.3954424 121 146 168
-0.21805269 0.051063765 1.3953927 118 144 164
-0.21723953 0.051060133 1.3952934 119 145 165
-0.21642648 0.051056497 1.3951939 122 148 169
-0.21561357 0.051052865 1.3950948 125 150 172
-0.2148084 0.051051043 1.395045 125 147 170
-0.21399567 0.051047411 1.3949456 125 147 169
-0.21319064 0.051045589 1.394896 130 151 171
-0.21238568 0.051043775 1.3948463 135 158 176
-0.21158077 0.051041953 1.3947966 138 162 183
-0.21077593 0.051040139 1.394747 136 162 184
-0.20997113 0.051038321 1.3946974 136 162 185
-0.20915894 0.051034685 1.394598 140 165 190
-0.20835428 0.051032867 1.3945483 140 162 188
-0.20754966 0.051031049 1.3944987 137 157 184
-0.20675249 0.051031049 1.3944987 138 157 183
-0.20596999 0.051034685 1.394598 135 158 183
-0.20520929 0.051043775 1.3948463 134 160 185
-0.20446286 0.051056497 1.3951939 132 159 185
-0.20376678 0.051081941 1.3958893 124 154 181
-0.20310603 0.051116474 1.3968331 95 133 161
-0.20244418 0.051151004 1.3977766 48 86 117
-0 0 0 20 38 68
-0 0 0 26 29 52
-0 0 0 21 26 43
-0 0 0 19 25 43
-0 0 0 20 26 45
-0 0 0 20 25 43
-0 0 0 21 25 43
-0 0 0 23 27 44
-0 0 0 22 27 44
-0 0 0 24 29 47
-0 0 0 22 28 48
-0 0 0 20 27 49
-0 0 0 19 26 49
-0 0 0 18 25 46
-0 0 0 17 23 43
-0 0 0 16 23 42
-0 0 0 17 24 43
-0 0 0 15 22 39
-0 0 0 17 23 40
-0.19524169 0.053559154 1.4635829 25 30 53
-0.19440502 0.053559154 1.4635829 31 36 64
-0.19356835 0.053559154 1.4635829 32 36 67
-0.26773793 0.051905725 1.3965846 91 74 82
-0.26708195 0.051933415 1.3973296 90 76 76
-0.26646298 0.051968481 1.3982732 109 106 102
-0.26577687 0.051990636 1.3988693 122 136 140
-0.26504305 0.052003559 1.3992169 125 148 167
-0.26429006 0.052012786 1.3994652 126 151 175
-0.26350877 0.052016478 1.3995646 126 152 174
-0.26270869 0.052016478 1.3995646 127 150 171
-0.26190862 0.052016478 1.3995646 127 150 169
-0.26109928 0.052014634 1.3995149 130 153 171
-0.26028997 0.052012786 1.3994652 129 153 172
-0.25947157 0.052009095 1.3993659 128 153 174
-0.2586624 0.052007243 1.3993162 129 153 178
-0.25785333 0.052005406 1.3992666 123 145 169
-0.2570352 0.052001711 1.3991672 118 139 158
-0.25620803 0.051996171 1.3990182 117 138 156
-0.25539014 0.05199248 1.398919 120 141 157
-0.25456333 0.051986944 1.3987699 122 143 162
-0.25374568 0.051983248 1.3986706 120 141 164
-0.25293714 0.051981404 1.3986208 118 139 162
-0.25212866 0.05197956 1.3985713 122 144 162
-0.25132021 0.051977716 1.3985217 122 146 163
-0.25051185 0.051975869 1.398472 118 142 162
-0.24970354 0.051974021 1.3984222 119 141 162
-0.24889526 0.051972177 1.3983725 120 142 164
-0.24807824 0.051968481 1.3982732 121 145 166
-0.24727014 0.051966641 1.3982236 124 149 167
-0.24645333 0.051962949 1.3981242 120 146 165
-0.24563661 0.051959254 1.3980249 114 140 163
-0.24482872 0.05195741 1.3979752 115 139 164
-0.24401222 0.051953722 1.397876 115 138 162
-0.24320447 0.051951874 1.3978263 116 138 159
-0.24238817 0.051948182 1.3977269 118 140 158
-0.24158055 0.051946335 1.3976773 118 140 158
-0.24076444 0.051942643 1.3975779 116 138 158
-0.23995699 0.051940799 1.3975283 117 138 160
-0.23914108 0.051937107 1.397429 120 141 163
-0.23833376 0.051935259 1.3973793 122 142 164
-0.23751804 0.051931564 1.3972799 121 141 162
-0.23671085 0.05192972 1.3972303 120 142 162
-0.23589535 0.051926028 1.397131 120 144 162
-0.23507996 0.051922336 1.3970317 119 143 161
-0.23426466 0.051918644 1.3969322 118 142 160
-0.2334495 0.051914956 1.3968331 119 142 161
-0.23263444 0.051911261 1.3967336 121 145 165
-0.23182775 0.051909417 1.3966839 119 146 166
-0.23101288 0.051905725 1.3965846 116 144 162
-0.23020631 0.051903877 1.3965349 117 144 161
-0.22939983 0.051902033 1.3964853 119 146 163
-0.22859338 0.051900189 1.3964356 117 145 163
-0.227787 0.051898342 1.396386 116 144 162
-0.22698067 0.051896498 1.3963363 119 144 163
-0.2261744 0.05189465 1.3962866 118 141 159
-0.22536016 0.051890958 1.3961873 125 147 166
-0.22455403 0.051889114 1.3961377 129 151 170
-0.22374 0.051885422 1.3960383 125 147 168
-0.22292607 0.051881731 1.395939 124 146 169
-0.22211225 0.051878035 1.3958396 125 149 173
-0.22129858 0.051874347 1.3957404 124 148 172
-0.22048499 0.051870655 1.395641 124 150 172
-0.2196715 0.051866964 1.3955417 125 150 172
-0.21885817 0.051863275 1.3954424 123 148 169
-0.21805269 0.051861428 1.3953927 123 148 168
-0.21723953 0.051857736 1.3952934 125 150 169
-0.21642648 0.051854037 1.3951939 123 147 168
-0.21561357 0.051850349 1.3950948 124 148 170
-0.2148084 0.051848505 1.395045 126 150 172
-0.21400329 0.051846657 1.3949953 124 147 168
-0.21319064 0.051842965 1.394896 128 149 167
-0.21238568 0.051841117 1.3948463 133 156 174
-0.21158831 0.051841117 1.3948463 138 162 184
-0.21077593 0.051837429 1.394747 140 165 191
-0.20997113 0.051835582 1.3946974 139 164 191
-0.20915894 0.05183189 1.394598 141 164 192
-0.20835428 0.051830042 1.3945483 143 165 192
-0.20754229 0.05182635 1.394449 145 165 192
-0.20675249 0.051828198 1.3944987 144 164 190
-0.20596999 0.05183189 1.394598 141 164 190
-0.20520929 0.051841117 1.3948463 137 163 189
-0.20446286 0.051854037 1.3951939 132 159 186
-0.20375952 0.051878035 1.3958396 124 155 183
-0.20310603 0.051914956 1.3968331 92 131 160
-0.20244418 0.051950026 1.3977766 45 85 115
-0 0 0 15 34 64
-0 0 0 23 28 50
-0 0 0 20 26 44
-0 0 0 18 24 42
-0 0 0 18 25 42
-0 0 0 20 26 43
-0 0 0 21 27 43
-0 0 0 21 26 42
-0 0 0 22 27 43
-0 0 0 24 29 46
-0 0 0 22 28 48
-0 0 0 20 27 49
-0 0 0 18 25 49
-0 0 0 17 25 46
-0 0 0 15 23 43
-0 0 0 16 23 43
-0 0 0 16 23 43
-0 0 0 13 20 37
-0 0 0 19 24 41
-0.19524169 0.054395795 1.4635829 27 31 56
-0.19440502 0.054395795 1.4635829 30 34 65
-0.19356835 0.054395795 1.4635829 32 36 69
-0.26776648 0.052709691 1.3967336 89 73 82
-0.26710096 0.052735928 1.397429 90 76 77
-0.26648191 0.052771538 1.3983725 111 109 107
-0.26579574 0.052794028 1.3989685 125 139 145
-0.26505247 0.052805278 1.3992666 125 148 168
-0.26429006 0.05281277 1.3994652 121 148 171
-0.26351812 0.052818399 1.3996142 124 151 170
-0.26271802 0.052818399 1.3996142 130 154 172
-0.26190862 0.052816521 1.3995646 129 151 169
-0.26109928 0.052814648 1.3995149 128 149 167
-0.26028997 0.05281277 1.3994652 128 150 168
-0.25948074 0.052810896 1.3994155 129 153 174
-0.25867158 0.052809022 1.3993659 128 152 178
-0.25785333 0.052805278 1.3992666 123 145 169
-0.2570352 0.052801527 1.3991672 118 138 158
-0.25621712 0.052797779 1.3990679 119 138 155
-0.2553992 0.052794028 1.3989685 120 140 157
-0.25457236 0.052788407 1.3988196 120 141 160
-0.25375471 0.052784655 1.3987203 120 141 163
-0.25294611 0.052782785 1.3986706 121 141 162
-0.2521376 0.052780908 1.3986208 122 143 162
-0.25132915 0.052779038 1.3985713 118 143 161
-0.25052077 0.052777164 1.3985217 117 142 163
-0.24970354 0.052773416 1.3984222 121 143 165
-0.24889526 0.052771538 1.3983725 120 141 162
-0.24808705 0.052769665 1.3983228 122 142 162
-0.24727014 0.052765917 1.3982236 124 145 162
-0.24645333 0.052762169 1.3981242 120 144 161
-0.24564534 0.052760292 1.3980746 117 143 162
-0.24482872 0.05275654 1.3979752 116 142 162
-0.24402088 0.05275467 1.3979255 116 141 161
-0.24320447 0.052750923 1.3978263 116 139 159
-0.24239677 0.052749049 1.3977766 120 142 159
-0.24158055 0.052745301 1.3976773 122 145 162
-0.24077299 0.052743424 1.3976276 120 143 161
-0.23995699 0.052739676 1.3975283 121 143 161
-0.23914959 0.052737806 1.3974786 121 142 161
-0.23833376 0.052734055 1.3973793 119 141 159
-0.23752648 0.052732177 1.3973296 119 142 160
-0.23671085 0.052728429 1.3972303 121 145 163
-0.23590375 0.052726559 1.3971807 122 145 164
-0.2350883 0.052722808 1.3970813 122 144 164
-0.234273 0.05271906 1.396982 120 143 163
-0.23345779 0.052715309 1.3968825 119 142 163
-0.23264271 0.052711561 1.3967834 120 145 166
-0.23182775 0.052707814 1.3966839 120 146 167
-0.23102109 0.05270594 1.3966342 120 147 166
-0.23021451 0.052704062 1.3965846 123 148 166
-0.22940798 0.052702192 1.3965349 121 145 163
-0.22860152 0.052700322 1.3964853 119 143 161
-0.22779511 0.052698445 1.3964356 120 145 164
-0.22698873 0.052696571 1.396386 119 143 163
-0.2261744 0.052692823 1.3962866 119 142 162
-0.22536816 0.052690946 1.3962369 128 151 171
-0.22455403 0.052687198 1.3961377 129 152 172
-0.22374 0.05268345 1.3960383 126 147 168
-0.22291814 0.052677825 1.3958893 125 145 167
-0.22210437 0.052674081 1.39579 126 148 169
-0.22129069 0.05267033 1.3956907 122 145 166
-0.22047715 0.052666578 1.3955913 120 145 165
-0.21966369 0.052662831 1.395492 121 147 167
-0.21885817 0.052660961 1.3954424 122 146 167
-0.21804494 0.052657213 1.3953431 125 149 168
-0.21723953 0.052655336 1.3952934 127 150 168
-0.21642648 0.052651584 1.3951939 125 148 166
-0.21562123 0.05264971 1.3951443 123 148 167
-0.2148084 0.052645966 1.395045 126 150 171
-0.21400329 0.052644089 1.3949953 126 148 169
-0.21319824 0.052642215 1.3949456 130 151 169
-0.21239324 0.052640337 1.394896 137 159 176
-0.21158831 0.052638467 1.3948463 140 163 184
-0.21077593 0.05263472 1.394747 142 166 190
-0.20997113 0.052632846 1.3946974 143 166 192
-0.20915894 0.052629098 1.394598 142 164 191
-0.20834684 0.052625347 1.3944987 140 162 189
-0.20754229 0.052623469 1.394449 144 164 192
-0.20674513 0.052623469 1.394449 146 166 193
-0.20596999 0.052629098 1.394598 143 166 192
-0.20520198 0.05263659 1.3947966 139 165 192
-0.20445558 0.05264971 1.3951443 133 160 188
-0.20375952 0.052675948 1.3958396 120 151 180
-0.2030988 0.052711561 1.3967834 86 126 155
-0.20244418 0.052749049 1.3977766 39 80 110
-0 0 0 12 33 61
-0 0 0 23 28 50
-0 0 0 21 26 44
-0 0 0 20 25 42
-0 0 0 19 26 43
-0 0 0 19 26 43
-0 0 0 21 27 43
-0 0 0 20 26 42
-0 0 0 24 29 45
-0 0 0 23 28 46
-0 0 0 22 28 47
-0 0 0 19 26 47
-0 0 0 18 25 47
-0 0 0 17 24 46
-0 0 0 17 26 46
-0 0 0 16 24 45
-0 0 0 14 22 41
-0 0 0 13 19 36
-0 0 0 20 24 41
-0.19524169 0.055232432 1.4635829 28 30 53
-0.19440502 0.055232432 1.4635829 33 36 67
-0.19356179 0.055230565 1.4635333 31 36 69
-0.26778555 0.053511921 1.3968331 84 71 81
-0.26711994 0.053538557 1.3975283 91 78 81
-0.26650083 0.053574707 1.398472 115 114 113
-0.26580518 0.053595636 1.3990182 125 140 147
-0.26506186 0.053607047 1.3993162 124 148 168
-0.26430884 0.053616565 1.3995646 124 150 172
-0.26352742 0.053620368 1.3996638 126 152 170
-0.26272732 0.053620368 1.3996638 133 156 172
-0.26191792 0.053618468 1.3996142 133 156 173
-0.26110855 0.053616565 1.3995646 129 152 170
-0.26029924 0.053614661 1.3995149 129 153 171
-0.25948074 0.053610854 1.3994155 128 154 176
-0.25867158 0.05360895 1.3993659 126 151 178
-0.25786245 0.053607047 1.3993162 122 144 169
-0.25704432 0.053603247 1.3992169 116 137 156
-0.25622624 0.053599443 1.3991176 118 138 155
-0.25540829 0.053595636 1.3990182 122 142 160
-0.25458139 0.053589929 1.3988693 120 141 160
-0.25376371 0.053586125 1.3987699 120 141 161
-0.25295511 0.053584222 1.3987203 120 141 161
-0.2521376 0.053580415 1.3986208 118 140 159
-0.25132915 0.053578515 1.3985713 116 140 160
-0.25052077 0.053576611 1.3985217 118 143 164
-0.24971241 0.053574707 1.398472 121 143 164
-0.24889526 0.0535709 1.3983725 123 144 164
-0.24808705 0.053568996 1.3983228 126 147 165
-0.24727014 0.053565197 1.3982236 127 148 163
-0.24646208 0.053563293 1.3981739 125 148 162
-0.24564534 0.053559486 1.3980746 123 146 161
-0.24483742 0.053557582 1.3980249 120 143 159
-0.24402088 0.053553775 1.3979255 120 143 160
-0.24320447 0.053549971 1.3978263 120 143 159
-0.24239677 0.053548068 1.3977766 118 141 157
-0.24158055 0.053544264 1.3976773 118 142 158
-0.24077299 0.053542361 1.3976276 121 146 161
-0.23995699 0.053538557 1.3975283 123 146 161
-0.23914959 0.053536657 1.3974786 121 144 158
-0.23834223 0.053534754 1.397429 121 143 158
-0.23752648 0.053530946 1.3973296 121 142 157
-0.23671927 0.053529043 1.3972799 121 143 159
-0.23590375 0.053525243 1.3971807 125 147 166
-0.2350883 0.053521436 1.3970813 126 147 169
-0.234273 0.053517628 1.396982 124 145 168
-0.23345779 0.053513821 1.3968825 123 145 168
-0.23265098 0.053511921 1.3968331 122 144 166
-0.23183598 0.053508114 1.3967336 120 142 164
-0.23102932 0.05350621 1.3966839 123 146 166
-0.23021451 0.053502403 1.3965846 127 149 167
-0.22940798 0.053500503 1.3965349 122 144 162
-0.22860152 0.053498603 1.3964853 118 142 161
-0.22779511 0.0534967 1.3964356 120 145 165
-0.22698873 0.053494796 1.396386 118 143 165
-0.2261744 0.053490989 1.3962866 120 143 166
-0.22536816 0.053489085 1.3962369 125 147 171
-0.22455403 0.053485282 1.3961377 126 148 171
-0.22373202 0.053479575 1.3959887 125 146 167
-0.22291814 0.053475767 1.3958893 124 144 163
-0.22210437 0.053471968 1.39579 125 148 165
-0.22129069 0.05346816 1.3956907 124 148 166
-0.22047715 0.053464353 1.3955913 121 146 164
-0.21966369 0.053460546 1.395492 123 148 167
-0.21885039 0.053456746 1.3953927 128 151 171
-0.21804494 0.053454842 1.3953431 129 151 169
-0.2172318 0.053451035 1.3952436 127 149 167
-0.21642648 0.053449132 1.3951939 126 149 166
-0.21562123 0.053447228 1.3951443 124 147 166
-0.2148084 0.053443424 1.395045 124 147 167
-0.21400329 0.053441521 1.3949953 126 149 169
-0.21319824 0.053439621 1.3949456 133 155 173
-0.21239324 0.053437717 1.394896 138 161 178
-0.21158831 0.053435814 1.3948463 142 165 185
-0.21077593 0.05343201 1.394747 142 164 187
-0.20997113 0.053430106 1.3946974 142 164 189
-0.20915894 0.053426299 1.394598 143 166 192
-0.20834684 0.053422492 1.3944987 142 164 192
-0.20754229 0.053420588 1.394449 143 163 192
-0.20674513 0.053420588 1.394449 145 163 191
-0.20596264 0.053424396 1.3945483 145 166 193
-0.20520198 0.05343391 1.3947966 142 165 193
-0.20446286 0.053449132 1.3951939 135 161 191
-0.20375229 0.053471968 1.39579 119 149 179
-0.20308435 0.05350621 1.3966839 85 124 153
-0.20242259 0.053542361 1.3976276 38 77 106
-0 0 0 12 33 61
-0 0 0 24 30 52
-0 0 0 22 28 46
-0 0 0 20 25 42
-0 0 0 19 26 43
-0 0 0 17 25 41
-0 0 0 18 25 41
-0 0 0 20 27 42
-0 0 0 25 32 47
-0 0 0 23 29 45
-0 0 0 21 27 45
-0 0 0 20 26 46
-0 0 0 19 25 47
-0 0 0 18 25 47
-0 0 0 16 25 47
-0 0 0 14 23 45
-0 0 0 15 24 44
-0 0 0 15 23 39
-0 0 0 21 26 42
-0.19523507 0.056067176 1.4635333 31 35 58
-0.19439183 0.056065273 1.4634837 34 40 70
-0.19355522 0.056065273 1.4634837 32 40 74
-0.26782361 0.054318126 1.3970317 83 71 83
-0.26714841 0.054343227 1.3976773 93 79 84
-0.26651978 0.054377992 1.3985713 118 117 119
-0.26582408 0.05439923 1.3991176 126 142 150
-0.26508069 0.054410815 1.3994155 125 148 168
-0.2643182 0.054418541 1.3996142 129 154 176
-0.26353681 0.054422401 1.3997135 129 153 173
-0.26273662 0.054422401 1.3997135 130 152 172
-0.26192719 0.054420467 1.3996638 131 153 176
-0.26111779 0.054418541 1.3996142 130 156 178
-0.26029924 0.054414682 1.3995149 132 158 180
-0.25948995 0.054412745 1.3994652 130 157 180
-0.25867158 0.054408882 1.3993659 128 153 179
-0.25786245 0.054406952 1.3993162 124 146 170
-0.25704432 0.054403093 1.3992169 119 140 159
-0.25622624 0.05439923 1.3991176 118 139 156
-0.25540829 0.054395366 1.3990182 121 141 159
-0.25459045 0.054391507 1.398919 120 140 158
-0.25377271 0.054387644 1.3988196 120 140 160
-0.25296408 0.054385711 1.3987699 120 142 162
-0.25214657 0.054381847 1.3986706 119 141 161
-0.25133806 0.054379918 1.3986208 117 140 161
-0.25052077 0.054376062 1.3985217 119 142 163
-0.24971241 0.054374125 1.398472 120 143 164
-0.24890411 0.054372195 1.3984222 120 142 162
-0.24808705 0.054368332 1.3983228 122 144 163
-0.24727891 0.054366402 1.3982732 124 146 162
-0.24646208 0.054362543 1.3981739 123 145 160
-0.24565406 0.05436061 1.3981242 121 142 158
-0.24483742 0.054356746 1.3980249 119 139 156
-0.24402088 0.054352883 1.3979255 119 139 156
-0.24321312 0.054350957 1.397876 121 142 159
-0.24239677 0.05434709 1.3977766 122 144 161
-0.24158055 0.054343227 1.3976773 118 143 159
-0.24077299 0.054341298 1.3976276 118 144 160
-0.2399655 0.054339368 1.3975779 120 144 161
-0.23914959 0.054335505 1.3974786 119 142 160
-0.23834223 0.054333575 1.397429 121 141 161
-0.23753493 0.054331642 1.3973793 122 140 161
-0.23671927 0.054327782 1.3972799 120 138 159
-0.23590375 0.054323923 1.3971807 121 138 159
-0.23509666 0.054321989 1.397131 122 141 162
-0.23428133 0.054318126 1.3970317 125 143 164
-0.23346609 0.054314263 1.3969322 128 146 167
-0.23265098 0.054310407 1.3968331 128 145 166
-0.23184423 0.05430847 1.3967834 125 143 163
-0.23102932 0.054304607 1.3966839 125 143 163
-0.2302227 0.054302678 1.3966342 123 142 161
-0.22941613 0.054300748 1.3965846 119 140 157
-0.22860964 0.054298814 1.3965349 118 141 159
-0.2278032 0.054296885 1.3964853 119 144 165
-0.22698873 0.054293022 1.396386 119 144 167
-0.2261744 0.054289162 1.3962866 121 146 167
-0.22536816 0.054287229 1.3962369 122 144 166
-0.22455403 0.054283369 1.3961377 124 145 166
-0.22373202 0.054277573 1.3959887 125 146 165
-0.22291814 0.054273713 1.3958893 125 146 164
-0.22210437 0.05426985 1.39579 125 148 165
-0.22128282 0.054264057 1.395641 123 147 165
-0.22046928 0.054260194 1.3955417 121 146 164
-0.21966369 0.054258261 1.395492 122 145 165
-0.21885039 0.054254401 1.3953927 124 145 166
-0.21804494 0.054252472 1.3953431 126 146 165
-0.2172318 0.054248609 1.3952436 124 145 164
-0.21642648 0.054246679 1.3951939 125 147 166
-0.21561357 0.054242816 1.3950948 122 145 164
-0.2148084 0.054240886 1.395045 122 145 164
-0.21400329 0.054238953 1.3949953 129 152 171
-0.21319824 0.054237023 1.3949456 133 156 174
-0.21239324 0.054235093 1.394896 138 160 179
-0.21158831 0.05423316 1.3948463 142 164 184
-0.21077593 0.0542293 1.394747 143 163 186
-0.20997113 0.054227367 1.3946974 141 162 186
-0.20915894 0.054223508 1.394598 142 165 190
-0.20834684 0.054219641 1.3944987 142 165 191
-0.20754229 0.054217707 1.394449 147 166 194
-0.20674513 0.054217707 1.394449 148 165 193
-0.20596264 0.054221574 1.3945483 146 165 192
-0.20520198 0.054231226 1.3947966 142 162 191
-0.20446286 0.054246679 1.3951939 134 159 188
-0.20375229 0.05426985 1.39579 121 150 179
-0.2030338 0.054291092 1.3963363 89 126 155
-0.20242259 0.054341298 1.3976276 38 75 102
-0 0 0 12 33 58
-0 0 0 22 30 50
-0 0 0 21 28 45
-0 0 0 19 25 42
-0 0 0 19 26 43
-0 0 0 17 25 42
-0 0 0 18 26 43
-0 0 0 19 27 42
-0 0 0 24 30 46
-0 0 0 22 28 44
-0 0 0 22 27 44
-0 0 0 21 26 45
-0 0 0 20 25 46
-0 0 0 19 25 48
-0 0 0 19 27 50
-0 0 0 19 28 50
-0 0 0 19 28 49
-0 0 0 19 28 45
-0 0 0 26 32 48
-0.19522846 0.056901857 1.4634837 44 49 72
-0.19438525 0.05689992 1.463434 47 55 85
-0.19354208 0.05689799 1.4633843 41 52 87
-0.26785222 0.055122603 1.3971807 81 72 86
-0.26716739 0.055146113 1.3977766 93 80 87
-0.2665292 0.055179421 1.3986208 120 118 122
-0.2658335 0.055200979 1.3991672 130 146 155
-0.26509008 0.055212732 1.3994652 127 150 170
-0.26432759 0.05522057 1.3996638 127 152 176
-0.26353681 0.05522253 1.3997135 128 152 177
-0.26273662 0.05522253 1.3997135 132 154 180
-0.26192719 0.05522057 1.3996638 136 158 187
-0.26111779 0.055218615 1.3996142 132 157 185
-0.26030847 0.055216655 1.3995646 127 154 179
-0.25948995 0.055212732 1.3994652 129 157 182
-0.25868076 0.055210773 1.3994155 131 158 183
-0.25786245 0.055206858 1.3993162 126 148 171
-0.25704432 0.055202939 1.3992169 122 142 161
-0.25623533 0.055200979 1.3991672 120 141 159
-0.25541735 0.05519706 1.3990679 121 140 160
-0.25459948 0.055193137 1.3989685 120 139 160
-0.25378174 0.055189226 1.3988693 119 139 159
-0.25296408 0.055185303 1.3987699 120 142 162
-0.25215551 0.055183344 1.3987203 122 144 165
-0.25133806 0.055179421 1.3986208 119 142 164
-0.25052965 0.055177469 1.3985713 120 143 164
-0.24971241 0.055173546 1.398472 121 144 165
-0.24890411 0.055171587 1.3984222 118 140 161
-0.24809587 0.055169623 1.3983725 119 140 160
-0.24727891 0.055165708 1.3982732 123 144 162
-0.24647084 0.055163749 1.3982236 126 147 164
-0.24565406 0.055159833 1.3981242 125 145 163
-0.24484612 0.05515787 1.3980746 121 142 160
-0.24402955 0.055153951 1.3979752 121 141 160
-0.24321312 0.055150036 1.397876 124 145 163
-0.24239677 0.055146113 1.3977766 126 148 164
-0.24158914 0.055144154 1.3977269 125 149 166
-0.24077299 0.055140235 1.3976276 124 149 167
-0.2399655 0.055138275 1.3975779 123 148 168
-0.23914959 0.055134356 1.3974786 123 146 169
-0.23834223 0.055132397 1.397429 122 142 168
-0.23753493 0.055130441 1.3973793 120 139 166
-0.23671927 0.055126518 1.3972799 120 138 164
-0.23590375 0.055122603 1.3971807 121 139 162
-0.23509666 0.055120643 1.397131 123 144 164
-0.23428133 0.05511672 1.3970317 126 148 165
-0.23346609 0.055112801 1.3969322 128 148 165
-0.23265098 0.055108886 1.3968331 129 148 165
-0.23184423 0.055106927 1.3967834 128 147 166
-0.23103754 0.055104963 1.3967336 125 143 164
-0.23023088 0.055103008 1.3966839 121 140 161
-0.22941613 0.055099085 1.3965846 121 142 158
-0.22860964 0.055097125 1.3965349 119 143 159
-0.2278032 0.05509517 1.3964853 118 144 165
-0.22698873 0.055091251 1.396386 119 145 169
-0.22618243 0.055089291 1.3963363 123 147 168
-0.22536816 0.055085368 1.3962369 123 146 165
-0.22455403 0.055081457 1.3961377 123 146 164
-0.22373202 0.055075575 1.3959887 125 146 164
-0.22291814 0.055071656 1.3958893 126 147 164
-0.22210437 0.055067737 1.39579 125 148 165
-0.22128282 0.055061858 1.395641 125 148 167
-0.22046928 0.055057939 1.3955417 123 147 166
-0.21966369 0.055055976 1.395492 120 143 164
-0.21885039 0.055052064 1.3953927 119 138 160
-0.21804494 0.055050101 1.3953431 122 140 162
-0.2172318 0.055046182 1.3952436 123 144 166
-0.21642648 0.055044223 1.3951939 124 146 167
-0.21561357 0.055040307 1.3950948 122 145 164
-0.2148084 0.055038344 1.395045 123 146 165
-0.21399567 0.055034429 1.3949456 131 154 174
-0.21319064 0.055032466 1.394896 131 154 173
-0.21238568 0.055030506 1.3948463 135 158 178
-0.21158077 0.055028547 1.3947966 140 162 183
-0.21077593 0.055026591 1.394747 141 162 184
-0.20997113 0.055024631 1.3946974 143 163 187
-0.20915894 0.055020709 1.394598 143 166 191
-0.20835428 0.055018749 1.3945483 144 167 194
-0.20754229 0.05501483 1.394449 147 168 195
-0.20675249 0.05501679 1.3944987 145 165 192
-0.20596999 0.055020709 1.394598 143 163 191
-0.20520929 0.055030506 1.3948463 142 162 190
-0.20446286 0.055044223 1.3951939 136 160 189
-0.20375229 0.055067737 1.39579 126 155 183
-0.20302658 0.055087332 1.3962866 92 128 156
-0 0 0 37 73 98
-0 0 0 13 33 55
-0 0 0 22 29 49
-0 0 0 20 26 44
-0 0 0 19 24 42
-0 0 0 18 24 43
-0 0 0 18 25 44
-0 0 0 19 27 45
-0 0 0 21 28 44
-0 0 0 21 28 44
-0 0 0 22 29 45
-0 0 0 24 30 47
-0 0 0 23 28 46
-0 0 0 20 25 46
-0 0 0 22 28 50
-0 0 0 27 36 59
-0 0 0 26 38 60
-0 0 0 24 35 57
-0 0 0 21 30 48
-0 0 0 27 34 51
-0.19520193 0.057730593 1.463285 53 59 83
-0.19436543 0.057730593 1.463285 59 69 99
-0.19352894 0.057730593 1.463285 47 60 96
-0.2678712 0.055925254 1.3972799 78 71 85
-0.26719585 0.055951096 1.3979255 94 80 88
-0.2665576 0.055984892 1.3987699 122 119 124
-0.26585239 0.056004774 1.3992666 130 146 156
-0.2650995 0.056014709 1.3995149 129 153 174
-0.26433697 0.056022659 1.3997135 127 152 176
-0.26354617 0.056024648 1.3997632 128 151 176
-0.26274598 0.056024648 1.3997632 132 153 179
-0.26193649 0.056022659 1.3997135 134 156 184
-0.26111779 0.056018688 1.3996142 132 155 183
-0.26030847 0.056016698 1.3995646 128 152 179
-0.25948995 0.056012724 1.3994652 129 157 183
-0.25868076 0.056010734 1.3994155 132 159 185
-0.25786245 0.056006756 1.3993162 126 148 171
-0.25704432 0.056002785 1.3992169 123 142 161
-0.25623533 0.056000795 1.3991672 123 142 160
-0.25541735 0.05599682 1.3990679 122 140 160
-0.25459948 0.055992838 1.3989685 123 141 161
-0.25378174 0.055988871 1.3988693 122 142 160
-0.25297308 0.055986881 1.3988196 120 142 161
-0.25215551 0.055982903 1.3987203 119 142 162
-0.25134698 0.055980913 1.3986706 121 143 164
-0.25052965 0.055976942 1.3985713 124 146 165
-0.24972127 0.055974953 1.3985217 122 144 163
-0.24890411 0.055970978 1.3984222 120 141 161
-0.24809587 0.055968989 1.3983725 120 140 159
-0.24728769 0.055966999 1.3983228 121 140 157
-0.24647084 0.055963028 1.3982236 122 141 157
-0.24566279 0.055961039 1.3981739 122 142 158
-0.24484612 0.05595706 1.3980746 122 144 161
-0.24402955 0.055953085 1.3979752 121 144 161
-0.24322174 0.055951096 1.3979255 121 143 161
-0.2424054 0.055947125 1.3978263 123 144 162
-0.24158914 0.05594315 1.3977269 124 148 165
-0.24077299 0.055939171 1.3976276 122 147 167
-0.2399655 0.055937182 1.3975779 119 143 165
-0.23914959 0.055933207 1.3974786 121 144 166
-0.23834223 0.055931222 1.397429 123 143 167
-0.23753493 0.055929232 1.3973793 121 140 165
-0.23671927 0.055925254 1.3972799 121 137 162
-0.23590375 0.055921283 1.3971807 124 141 163
-0.23509666 0.055919297 1.397131 124 147 166
-0.23428133 0.055915318 1.3970317 122 146 164
-0.23346609 0.055911344 1.3969322 122 144 161
-0.23265924 0.055909351 1.3968825 124 144 162
-0.23184423 0.055905379 1.3967834 125 144 163
-0.23103754 0.055903394 1.3967336 123 143 163
-0.23023088 0.055901404 1.3966839 122 142 162
-0.2294243 0.055899415 1.3966342 122 144 160
-0.22860964 0.05589544 1.3965349 121 146 162
-0.2278032 0.055893455 1.3964853 118 145 165
-0.22698873 0.055889476 1.396386 117 142 165
-0.22618243 0.055887491 1.3963363 119 144 164
-0.22536816 0.055883512 1.3962369 121 146 165
-0.22455403 0.055879541 1.3961377 123 147 165
-0.22373202 0.055873573 1.3959887 126 148 165
-0.22291814 0.055869598 1.3958893 127 148 165
-0.22210437 0.055865623 1.39579 128 149 166
-0.22129069 0.055861648 1.3956907 127 148 165
-0.22047715 0.05585767 1.3955913 125 148 166
-0.21966369 0.055853695 1.395492 123 145 166
-0.21885039 0.05584972 1.3953927 125 143 166
-0.21804494 0.055847734 1.3953431 123 140 163
-0.2172318 0.055843759 1.3952436 125 145 168
-0.21641877 0.055839781 1.3951443 125 148 169
-0.21561357 0.055837795 1.3950948 124 147 167
-0.21480075 0.05583382 1.3949953 123 146 166
-0.21399567 0.055831827 1.3949456 130 152 172
-0.21318306 0.055827852 1.3948463 129 151 169
-0.21238568 0.055827852 1.3948463 132 154 173
-0.21158077 0.055825863 1.3947966 144 166 187
-0.21077593 0.055823877 1.394747 144 164 188
-0.20997113 0.055821892 1.3946974 145 164 188
-0.20916638 0.055819903 1.3946477 144 166 191
-0.20835428 0.055815924 1.3945483 145 168 193
-0.20754966 0.055813938 1.3944987 143 166 192
-0.20675249 0.055813938 1.3944987 142 164 190
-0.20597732 0.055819903 1.3946477 143 164 190
-0.20520929 0.055827852 1.3948463 145 166 191
-0.20447014 0.055843759 1.3952436 141 166 190
-0.20375952 0.055867609 1.3958396 130 159 186
-0.20304103 0.055889476 1.396386 92 126 154
-0 0 0 37 71 95
-0 0 0 15 34 55
-0 0 0 20 28 47
-0 0 0 20 26 44
-0 0 0 18 23 42
-0 0 0 18 24 43
-0 0 0 19 25 44
-0 0 0 20 26 46
-0 0 0 21 28 45
-0 0 0 23 30 46
-0 0 0 23 30 46
-0 0 0 25 31 48
-0 0 0 25 30 48
-0 0 0 25 29 48
-0 0 0 28 32 52
-0 0 0 35 45 64
-0 0 0 29 42 62
-0 0 0 26 38 58
-0 0 0 20 30 48
-0 0 0 25 33 50
-0.19518207 0.058561105 1.463136 49 57 81
-0.19435225 0.058563091 1.4631857 54 65 96
-0.19352236 0.058565076 1.4632353 46 59 97
-0.26789978 0.056730047 1.397429 75 71 86
-0.26721483 0.056754239 1.3980249 93 80 89
-0.26656708 0.0567865 1.3988196 123 120 126
-0.26585239 0.056804646 1.3992666 130 145 156
-0.2650995 0.056814723 1.3995149 129 152 174
-0.26433697 0.056822788 1.3997135 129 151 175
-0.26354617 0.056824807 1.3997632 127 149 172
-0.26274598 0.056824807 1.3997632 130 152 176
-0.26193649 0.056822788 1.3997135 134 156 182
-0.26111779 0.056818761 1.3996142 134 157 185
-0.26030847 0.056816742 1.3995646 135 160 187
-0.25948995 0.056812711 1.3994652 133 161 187
-0.25867158 0.056808673 1.3993659 131 157 182
-0.25786245 0.056806661 1.3993162 124 146 169
-0.25704432 0.056802627 1.3992169 122 142 161
-0.25623533 0.056800615 1.3991672 122 141 160
-0.25541735 0.056796577 1.3990679 120 141 160
-0.25459948 0.056792546 1.3989685 122 143 161
-0.25378174 0.056788515 1.3988693 123 144 162
-0.25297308 0.0567865 1.3988196 120 143 160
-0.25215551 0.056782462 1.3987203 118 141 160
-0.25134698 0.05678045 1.3986706 120 144 163
-0.25052965 0.056776419 1.3985713 123 146 165
-0.24972127 0.056774404 1.3985217 122 145 163
-0.24891295 0.056772385 1.398472 122 144 162
-0.24809587 0.056768354 1.3983725 123 143 161
-0.24728769 0.056766335 1.3983228 122 142 158
-0.24647957 0.056764316 1.3982732 122 143 158
-0.24566279 0.056760289 1.3981739 124 146 160
-0.24485481 0.05675827 1.3981242 126 148 163
-0.24403822 0.056754239 1.3980249 125 147 164
-0.24322174 0.056750204 1.3979255 122 142 160
-0.2424054 0.056746174 1.3978263 122 143 161
-0.24158914 0.056742143 1.3977269 124 146 165
-0.24077299 0.056738105 1.3976276 123 146 168
-0.2399655 0.056736093 1.3975779 121 143 166
-0.23914959 0.056732062 1.3974786 121 143 164
-0.23834223 0.056730047 1.397429 125 144 165
-0.23752648 0.056726009 1.3973296 126 143 164
-0.23671927 0.056723997 1.3972799 124 139 160
-0.23591211 0.056721978 1.3972303 124 141 161
-0.23509666 0.056717947 1.397131 123 146 165
-0.23428133 0.056713913 1.3970317 122 146 165
-0.23346609 0.056709882 1.3969322 122 144 163
-0.23265924 0.056707863 1.3968825 123 143 164
-0.23184423 0.056703836 1.3967834 124 144 164
-0.23103754 0.056701817 1.3967336 124 143 163
-0.23023088 0.056699801 1.3966839 125 145 164
-0.2294243 0.056697786 1.3966342 123 145 160
-0.22861777 0.056695767 1.3965846 121 147 162
-0.2278032 0.05669174 1.3964853 121 148 167
-0.22699681 0.056689721 1.3964356 119 146 167
-0.22618243 0.05668569 1.3963363 120 146 167
-0.22536816 0.056681652 1.3962369 120 146 166
-0.22455403 0.056677625 1.3961377 123 147 166
-0.22374 0.05667359 1.3960383 125 147 164
-0.22291814 0.05666754 1.3958893 127 147 164
-0.22210437 0.056663513 1.39579 127 147 164
-0.22129069 0.056659479 1.3956907 125 146 162
-0.22047715 0.056655444 1.3955913 125 148 165
-0.2196715 0.056653429 1.3955417 123 145 166
-0.21885817 0.056649398 1.3954424 125 145 168
-0.21804494 0.056645364 1.3953431 126 144 168
-0.2172318 0.056641329 1.3952436 126 147 170
-0.21641877 0.056637295 1.3951443 126 148 171
-0.2156059 0.056633268 1.395045 124 147 169
-0.21480075 0.056631252 1.3949953 123 146 167
-0.21398805 0.056627218 1.394896 126 149 168
-0.21318306 0.056625199 1.3948463 129 152 168
-0.21237811 0.056623183 1.3947966 132 155 172
-0.21158077 0.056623183 1.3947966 147 169 191
-0.21077593 0.056621172 1.394747 146 166 192
-0.20997113 0.056619156 1.3946974 145 164 189
-0.20916638 0.056617137 1.3946477 145 167 191
-0.2083617 0.056615122 1.394598 145 168 194
-0.20755707 0.056613103 1.3945483 142 165 191
-0.20675986 0.056613103 1.3945483 143 165 190
-0.20597732 0.056617137 1.3946477 145 166 191
-0.2052166 0.056627218 1.394896 146 167 190
-0.20447741 0.056643348 1.3952934 141 166 189
-0.20377403 0.056669556 1.395939 125 154 181
-0.20305549 0.05669174 1.3964853 89 122 150
-0 0 0 37 68 91
-0 0 0 15 34 53
-0 0 0 20 28 47
-0 0 0 19 26 44
-0 0 0 19 24 43
-0 0 0 18 25 44
-0 0 0 18 25 45
-0 0 0 21 27 47
-0 0 0 22 28 46
-0 0 0 23 30 47
-0 0 0 23 30 47
-0 0 0 25 31 49
-0 0 0 26 32 50
-0 0 0 25 30 48
-0 0 0 28 32 48
-0 0 0 35 44 59
-0 0 0 30 43 61
-0 0 0 27 39 58
-0 0 0 20 29 47
-0 0 0 24 31 50
-0.19516219 0.059391439 1.4629869 45 52 77
-0.19433247 0.059393454 1.4630367 49 57 90
-0.19350925 0.059397489 1.463136 48 58 97
-0.26791885 0.057532959 1.3975283 71 69 84
-0.26722434 0.057555448 1.3980746 92 80 90
-0.26657656 0.05758816 1.3988693 124 121 127
-0.26585239 0.057604518 1.3992666 130 145 156
-0.2650995 0.057614744 1.3995149 127 149 170
-0.26433697 0.057622917 1.3997135 131 151 175
-0.26354617 0.057624962 1.3997632 134 154 176
-0.26274598 0.057624962 1.3997632 135 157 180
-0.26193649 0.057622917 1.3997135 137 160 184
-0.26111779 0.05761883 1.3996142 136 161 186
-0.26029924 0.057614744 1.3995149 135 160 186
-0.25948995 0.057612699 1.3994652 133 159 184
-0.25867158 0.057608604 1.3993659 131 155 180
-0.25786245 0.057606559 1.3993162 126 147 170
